# .PCD v0.7 - Point Cloud Data file format
VERSION 0.7
FIELDS x y z
SIZE 4 4 4
TYPE F F F
COUNT 1 1 1
WIDTH 1428
HEIGHT 1
VIEWPOINT 0 0 0 1 0 0 0
POINTS 1428
DATA ascii
0.34597993 -0.30341068 0.057208888
0.13678262 -0.95099783 0.31425491
0.55097741 0.5714429 0.78762186
0.25503087 -0.74994773 0.55349731
0.37593669 -0.23841944 0.83142233
0.25767711 -0.24348494 0.73340166
0.52228737 -0.80874389 0.5539217
0.88028389 0.61744368 0.8365894
0.51561457 0.83667129 0.62219566
0.46290863 0.65961742 0.14715303
0.45818481 -0.041386079 0.90108484
0.51539367 0.79774511 0.20206487
0.82964861 0.34661576 0.49349374
0.61727047 -0.90184104 0.15849477
0.17076778 -0.10500727 0.5937264
0.0021901266 0.77884758 0.66885668
0.73559177 0.89321631 0.1326818
0.2895135 0.90741229 0.7450307
0.12610288 0.68814111 0.40176409
0.74829859 -0.16642706 0.77495646
0.89545161 0.74281275 0.49412873
0.79653645 0.51249689 0.35008362
0.99860126 -0.0050731013 0.75701594
0.49209499 0.85845113 0.41897914
0.65058976 -0.60315979 0.45687899
0.24431615 -0.49365345 0.75245595
0.91317284 0.28593561 0.57032025
0.045854636 0.76161033 0.2684685
0.79088533 -0.93324578 0.48223132
0.19264941 0.4816823 0.15890278
0.96760589 -0.74573791 0.29375905
0.46173459 -0.91891712 0.94400901
0.81181824 -0.98885304 0.42390752
0.56883419 -0.38410288 0.52107656
0.98781329 0.14538567 0.78901333
0.44469228 0.36119318 0.059140272
0.1971482 0.019834734 0.064858988
0.76746845 0.31256643 0.36009118
0.035936967 -0.14316809 0.78142625
0.51816827 -0.51069742 0.95105994
0.67707109 -0.13040426 0.016145166
0.97083014 0.95632535 0.87776685
0.91483909 -0.45276341 0.73798978
0.33874661 -0.011054846 0.090307705
0.85982317 -0.62039006 0.093215421
0.64883649 -0.38577619 0.34043929
0.70797676 -0.52836579 0.50083596
0.77283573 -0.15494254 0.70708728
0.13292694 -0.35809413 0.70422393
0.91435319 -0.4496794 0.89401001
0.86541313 -0.59612542 0.051401909
0.8815583 -0.05461948 0.67052841
0.75932515 -0.31266466 0.10147315
0.4973149 0.62466598 0.10125205
0.58762258 -0.38417655 0.088844255
0.68083799 0.057648048 0.52112871
0.021277301 -0.54351372 0.15056141
0.52211326 0.098273776 0.54746258
0.22920059 0.74462092 0.98030066
0.93342453 0.46228194 0.93130708
0.82743454 -0.26706085 0.55938458
0.87883645 -0.18914537 0.15829219
0.54936486 -0.22288871 0.67203891
0.65083802 0.64285606 0.5245322
0.75209004 0.023986071 0.23684868
0.84093428 0.065887004 0.59800166
0.36206302 -0.87024796 0.66713136
0.51262444 -0.76458406 0.50909686
0.060086999 0.69544506 0.48398927
0.040387679 -0.63332862 0.3732349
0.97169477 0.73839736 0.12789369
0.53107935 0.68021888 0.7641108
0.68937153 0.14846118 0.15965301
0.36141044 0.69036096 0.052510131
0.8859427 0.29486328 0.53298986
0.12279136 0.34157822 0.69430757
0.72079301 0.44472954 0.87690264
0.38792437 0.075951487 0.58161098
0.89702123 -0.91969854 0.51551986
0.3810105 -0.90031451 0.38285327
0.7542454 -0.31557593 0.077621229
0.88213909 0.23839182 0.65122563
0.64624989 0.70696926 0.77419484
0.8059029 0.77749169 0.54800206
0.85841304 -0.92537481 0.073899314
0.3914029 -0.78580695 0.44073087
0.085710481 -0.74615657 0.16962548
0.96261311 0.65006262 0.4111445
0.54422408 -0.49887562 0.71275055
0.059743926 0.55164957 0.054744244
0.44259721 0.26392028 0.36843273
0.52021843 0.37087557 0.21320055
0.17144404 0.68337011 0.74733996
0.9456389 0.97851527 0.6428898
0.49364093 -0.10083301 0.42438227
0.56754023 -0.53068858 0.32866615
0.0082711317 -0.24516444 0.95374304
0.1778966 -0.11450852 0.96674424
0.58904111 -0.90330487 0.87676674
0.30179164 0.083891504 0.16779974
0.35653588 0.21375206 0.21307816
0.72496861 0.22467418 0.14049566
0.93816918 0.79687673 0.71416306
0.68550909 0.078820847 0.09373337
0.32839888 0.76086754 0.33171672
0.75278115 -0.86211991 0.96110296
0.081447318 -0.44856331 0.67619967
0.035190329 0.44626692 0.35390949
0.0019345931 -0.10167774 0.57584339
0.87870133 0.98790419 0.85752124
0.046501093 0.81469828 0.58179623
0.25957924 -0.93687153 0.82628971
0.4000749 -0.028413277 0.24222727
0.11423797 0.24704216 0.60380369
0.20797135 0.66698658 0.45902103
0.53968805 0.30604511 0.88177866
0.50079101 0.37841085 0.31280738
0.17699064 0.13792722 0.92173272
0.53090012 0.2346569 0.11969916
0.10674351 0.16972421 0.61945724
0.96426475 0.49477881 0.47575122
0.54606098 -0.52625906 0.05701378
0.37235072 -0.52251381 0.57644552
0.61457801 -0.81061524 0.78138638
0.21838167 -0.4120481 0.31472608
0.67740273 0.57235461 0.60084701
0.55918133 -0.38809574 0.9684152
0.87198871 0.46143648 0.37117377
0.79372144 -0.99355727 0.77586687
0.91342062 0.34361818 0.059261378
0.53287786 0.55685431 0.38915697
0.0086290706 -0.14009689 0.97863179
0.065642849 0.47743884 0.96818149
0.64208835 -0.79366177 0.071969189
0.42347473 0.12542209 0.38372824
0.73820084 -0.0044420101 0.23517533
0.33904782 -0.045373961 0.58741343
0.30746302 -0.44593707 0.11664214
0.67863679 -0.75986445 0.17677099
0.45450366 0.91116625 0.34364337
0.51376504 -0.44494078 0.47478044
0.90292197 -0.013487263 0.15197851
0.88155377 -0.7313447 0.20152728
0.84973526 -0.62692636 0.86565405
0.92170447 0.54680991 0.74816251
0.30543268 -0.54314923 0.30807364
0.54060799 0.40924126 0.42716616
0.12802142 -0.21760768 0.41824743
0.24466355 -0.2857689 0.20305014
0.42143455 0.43941453 0.90127349
0.76507789 0.12766683 0.13237464
0.23985834 -0.72623318 0.37210491
0.39183685 -0.64854467 0.67747802
0.59336412 -0.1617813 0.6249395
0.45901817 -0.076558374 0.99587566
0.20718066 -0.80492395 0.1050127
0.51525432 0.22547652 0.5531975
0.94242048 0.62654734 0.30884537
0.36066791 0.85972506 0.74312997
0.56371802 -0.068547688 0.63191831
0.46499151 0.18534739 0.03447162
0.59736615 0.17826456 0.33994696
0.96947104 -0.22989312 0.52697605
0.64694905 -0.56168675 0.56374043
0.27188855 0.38922191 0.52220929
0.26776424 0.7482549 0.78611082
0.37277693 0.51097023 0.59062034
0.92597443 -0.36800602 0.52315128
0.23481983 -0.33461094 0.70034575
0.9779498 -0.14870892 0.29897481
0.60986811 -0.89913368 0.66268176
0.64433974 0.96917403 0.26624706
0.98428667 -0.55727309 0.26164919
0.51126271 -0.20981964 0.85041547
0.075003169 -0.61539209 0.89819992
0.59721243 0.77281958 0.153165
0.38332322 -0.5883339 0.92338437
0.97394353 -0.28961122 0.6360243
0.49709481 -0.5486201 0.70933205
0.19744059 0.34887064 0.34635788
0.49641541 0.8422755 0.4483752
0.15909716 -0.94073868 0.14775869
0.42534423 0.27359495 0.8166132
0.68699342 -0.1632683 0.13241683
0.53740889 -0.41310969 0.72010899
0.43560877 -0.55248767 0.5755654
0.58877373 0.61367393 0.80379868
0.51215816 -0.68914855 0.9580065
0.14818244 0.16559245 0.34703407
0.8575145 0.037621841 0.71401149
0.20387237 0.858392 0.69085699
0.65224755 0.8132503 0.31204224
0.80000627 0.080461286 0.91751415
0.61661947 0.43013188 0.034248762
0.74903631 -0.69942468 0.22598657
0.4691453 -0.91898644 0.014936814
0.044710688 0.51970136 0.18721029
0.84850937 0.12760903 0.33342731
0.80651587 -0.46326944 0.97673917
0.15354995 0.41245493 0.81749159
0.86756146 0.60607332 0.15465945
0.55841845 -0.78154802 0.65092444
0.87046069 -0.78123504 0.57253367
0.78797477 0.049739189 0.18113631
0.82222354 -0.49844497 0.32714781
0.048210129 0.9588204 0.90876812
0.063146941 -0.80564511 0.079162121
0.25035724 -0.38017541 0.76171428
0.58378458 -0.054381676 0.59244889
0.56052375 -0.37688404 0.280698
0.37801534 -0.99881178 0.17281948
0.53267479 0.92211044 0.71718854
0.18359923 0.44514412 0.061563816
0.7561329 -0.15611587 0.0225586
0.93726921 0.95506215 0.73258972
0.26441705 -0.63443142 0.91176611
0.17318514 0.52291566 0.13565321
0.25234726 -0.95922267 0.2080497
0.014061568 0.23000506 0.086962067
0.60651046 0.25619131 0.11942439
0.88720852 -0.84304208 0.019448148
0.060027972 -0.20930314 0.47789037
0.77721649 0.97065842 0.80679321
0.83878028 0.77730393 0.92367095
0.86133891 -0.35923475 0.86277217
0.59392864 0.86161774 0.85008353
0.50569475 -0.47912505 0.90054184
0.64134794 0.13823821 0.20135739
0.8493976 0.84131658 0.085957497
0.9363597 -0.83315933 0.53108132
0.055784073 -0.47273463 0.35422048
0.075232223 0.52866393 0.71003443
0.55312258 -0.61051154 0.24944758
0.35991582 -0.67149621 0.5449937
0.28358674 0.39544916 0.77780896
0.14635891 0.091879584 0.27504134
0.99644244 -0.62338454 0.94545883
0.89698428 -0.55598831 0.86822361
0.098341696 -0.086107172 0.8050499
0.1842992 0.73187721 0.34838673
0.71538055 -0.47891918 0.77893203
0.069601007 -0.7173081 0.26950532
0.77963543 0.93882078 0.5372951
0.029083019 0.9346118 0.64386517
0.57407671 -0.88605106 0.61177415
0.35188568 0.43189448 0.17361175
0.62692702 0.25401694 0.24114406
0.57238585 -0.89676803 0.95002431
0.44060943 0.020316893 0.50830215
0.24565935 -0.76472324 0.0029396908
0.59404606 -0.99569708 0.5533613
0.37297812 0.48435333 0.17901514
0.64248347 -0.53387523 0.35779157
0.17977855 0.92027575 0.89648378
0.82364374 -0.37588975 0.71876276
0.43541789 -0.78160655 0.68740064
0.60902965 0.56474322 0.65248102
0.85017365 -0.81596553 0.51454562
0.80019796 -0.78549463 0.47495198
0.30850011 -0.50252742 0.61965752
0.31143981 -0.80022317 0.47974357
0.86480111 -0.15131666 0.40943065
0.043816261 -0.027143808 0.11875314
0.40160781 0.96178383 0.85715866
0.29809162 0.14397 0.16964085
0.016854394 -0.085136078 0.83400875
0.70425504 0.36634517 0.1253036
0.35673606 0.87502921 0.98898429
0.87128168 0.88492781 0.2932744
0.3462337 0.30993369 0.84322387
0.96589118 -0.11807587 0.98721939
0.44563478 -0.87802011 0.50419307
0.85506541 -0.68720704 0.66365016
0.97381854 -0.60681593 0.0028858455
0.8309772 0.29776496 0.16576524
0.00061807875 -0.85951531 0.76406252
0.83462679 0.35323775 0.97138941
0.95993042 0.19004099 0.028890012
0.94891471 -0.24587356 0.88658857
0.24218908 -0.93418902 0.052787241
0.08541292 -0.63962859 0.53042573
0.072632298 -0.35788938 0.87286532
0.57682532 0.39538202 0.25912118
0.24047551 -0.91368967 0.046984863
0.24336135 0.63517129 0.13294016
0.40912661 0.66607523 0.23574986
0.17318912 0.39741561 0.042814612
0.14457855 0.39393565 0.20661543
0.17346856 -0.16033018 0.24169797
0.060057133 -0.050876454 0.62301415
0.11284438 0.21976939 0.97022164
0.64327008 -0.14861587 0.76306385
0.51613539 0.69265115 0.41097146
0.77525663 0.71642667 0.03269767
0.82224149 0.88449442 0.48540109
0.95518166 -0.65917552 0.93872261
0.19093148 0.00028073508 0.22667091
0.2337461 -0.77079165 0.47454962
0.44036153 -0.097363442 0.67134303
0.68205947 0.90549314 0.11032549
0.30507368 0.54771191 0.63472086
0.27529529 0.71121681 0.23174857
0.038359109 0.51798791 0.40560159
0.44933057 -0.71918184 0.81993014
0.48202825 0.39289159 0.47762001
0.96742934 0.15197317 0.54443651
0.90615195 -0.30145237 0.78444213
0.13282286 -0.61414725 0.16902629
0.60737246 -0.59607053 0.72707903
0.27871549 -0.4930957 0.34518889
0.38904101 0.76058823 0.076143116
0.023761872 0.5253526 0.45036745
0.25551045 0.44330812 0.34072721
0.66111201 0.90983677 0.0063435733
0.48104215 -0.98875111 0.49420139
0.95866215 -0.61728418 0.93724084
0.50309867 0.69031274 0.57121181
0.28754076 -0.66854471 0.43892887
0.45656705 -0.29992092 0.74700749
0.18364607 -0.36414599 0.73714554
0.52883494 -0.91209638 0.032357316
0.60497808 0.27599719 0.60286438
0.055345509 -0.94848096 0.21173052
0.39607272 0.1071202 0.26992726
0.40241629 0.15922742 0.81015223
0.89661771 0.092335172 0.31780657
0.83385855 -0.7527321 0.7316128
0.40507039 -0.37569356 0.27824193
0.84399927 0.4526591 0.4322435
0.59100676 -0.36503756 0.86496061
0.32815227 0.076709628 0.68671864
0.3605096 0.32561255 0.5322386
0.96337396 -0.90711194 0.63326895
0.1751045 0.89652407 0.39541137
0.44503176 -0.98266131 0.63859594
0.25518399 -0.15177639 0.84044266
0.57299054 -0.45884806 0.54538798
0.30460337 -0.20532867 0.5378741
0.58284533 -0.0053654844 0.98692733
0.015088804 -0.45502901 0.61962658
0.88004941 -0.047414936 0.78116077
0.56676805 -0.021935098 0.54767299
0.099006638 0.14676313 0.36953077
0.73227561 0.90198785 0.58746123
0.12768701 -0.8464241 0.20780802
0.76628292 -0.087223865 0.72477251
0.60672557 0.56230444 0.075595528
0.15211357 -0.20752653 0.83148897
0.68998772 0.93473858 0.43138164
0.67691499 -0.31082121 0.62228107
0.29654154 -0.30835178 0.14133276
0.077702299 0.030050317 0.020894062
0.62537527 0.98038238 0.86382931
0.99490607 -0.40583652 0.88186908
0.5823673 -0.021486282 0.3449406
0.79017532 0.29266056 0.063196123
0.51494777 0.62893921 0.35444221
0.59054333 0.23461753 0.95029169
0.42203227 0.73400205 0.12898645
0.85341394 0.57975185 0.32277003
0.47569498 -0.59317058 0.39660299
0.61702776 -0.70805568 0.037204001
0.63792181 0.56070912 0.77681166
0.50175112 0.30601189 0.24869491
0.3836202 -0.57562333 0.84826517
0.72856081 0.93314213 0.21411841
0.79175693 0.68053186 0.18669719
0.14619915 0.20769793 0.31138954
0.09649083 -0.69068843 0.12606958
0.22547728 -0.019992644 0.61766464
0.54824734 -0.23524374 0.40580121
0.94485033 0.61614335 0.27164009
0.98205429 0.51223356 0.76285428
0.75886595 -0.40020993 0.24897452
0.0075608753 0.7808007 0.31746206
0.85582608 -0.79115868 0.17612489
0.069944471 0.7966882 0.54973555
0.25664166 0.10664566 0.51388949
0.56803119 0.93118721 0.90007573
0.6941008 0.20505142 0.13967587
0.3117654 -0.38258284 0.85497099
0.71756661 0.85993254 0.18729386
0.98920667 -0.037352026 0.15753853
0.75206095 -0.09405417 0.6295343
0.0010354817 0.28398961 0.48515034
0.31849754 -0.924707 0.069327168
0.49462241 0.57251656 0.44526094
0.044357944 -0.59540045 0.96739388
0.55824745 -0.19384055 0.58601761
0.45832315 0.51119834 0.43011862
0.59799904 0.099468127 0.82246697
0.45297 -0.022201795 0.15966561
0.64026386 -0.56186712 0.47891858
0.79780239 -0.95881867 0.55703747
0.42733672 -0.90704459 0.6427173
0.91248703 -0.9821682 0.58422315
0.98181421 -0.25104734 0.5956735
0.42707515 -0.033150189 0.86376548
0.39446899 -0.12077879 0.69988865
0.98048657 0.79537845 0.23011263
0.41060522 0.69532883 0.07210198
0.23307218 -0.65617126 0.63165796
0.39273778 -0.64297861 0.18042061
0.87165636 -0.75285947 0.48124424
0.42869386 0.61397606 0.78310335
0.071411133 0.23832877 0.40345997
0.65563428 -0.67096007 0.51843905
0.25130776 0.68279779 0.67777604
0.11507322 0.40624797 0.39536044
0.81496185 -0.5694223 0.57126802
0.045074489 -0.039161637 0.34517461
0.11717647 -0.38555282 0.57205117
0.74883443 -0.74866337 0.43919161
0.92925501 0.83415478 0.10413441
0.41049924 0.26884747 0.19641393
0.19360259 -0.16059574 0.2011805
0.59706259 0.62111813 0.18776131
0.1155016 -0.81349427 0.60141724
0.79327762 0.94016647 0.40954223
0.18863808 -0.31174007 0.19815378
0.75990611 -0.058015596 0.39737055
0.1050807 -0.19919196 0.82965946
0.67713189 -0.75747097 0.65468621
0.11632347 -0.29471976 0.35136932
0.22045788 0.23024304 0.47674626
0.41687182 -0.089627109 0.67353433
0.6180523 -0.2364984 0.52595669
0.80581361 -0.46141815 0.62968683
0.40723088 -0.79753655 0.84849018
0.81677312 0.63436759 0.88225538
0.014926888 0.62967277 0.96109504
0.41229743 -0.11629222 0.1571112
0.24195692 -0.25969863 0.10196178
0.89664316 -0.44352502 0.97606736
0.24801245 0.57936907 0.26067224
0.72475874 -0.5770402 0.73887968
0.39829308 0.32557589 0.81414974
0.92424977 0.61625731 0.004921379
0.5539366 0.97780186 0.98897064
0.40242678 -0.1835425 0.161658
0.28468212 0.5628019 0.094251454
0.24577716 -0.82232654 0.13192561
0.40288836 -0.72448063 0.84673166
0.50485015 0.10767622 0.67786115
0.48091754 0.50829881 0.7294485
0.74158978 0.74623471 0.19790772
0.4804695 0.66088808 0.28441924
0.29461926 0.87337714 0.17674439
0.29954064 0.57020754 0.47630042
0.28851128 0.69154578 0.59262955
0.45016927 0.92565185 0.7238856
0.54442072 -0.78548986 0.26743907
0.67634636 -0.64107132 0.052949466
0.52307796 0.6014365 0.73510301
0.20093912 0.64731383 0.66526896
0.93038762 -0.27319622 0.32019365
0.12829536 -0.24972086 0.37341142
0.4127146 0.48124161 0.35087895
0.589459 -0.54172695 0.88228309
0.065759405 -0.11616312 0.81611401
0.65838897 0.39230075 0.034627069
0.38227457 -0.38666257 0.49891728
0.64971364 -0.5693453 0.36609584
0.70266312 -0.41544604 0.73812455
0.4377661 -0.3684898 0.59107083
0.10303508 0.1508925 0.18560693
0.42322874 0.56566072 0.26061252
0.79664016 -0.79860926 0.63023734
0.14751913 0.67433983 0.2994028
0.029802246 -0.037690066 0.25707954
0.84591627 0.88175851 0.66492558
0.88054335 -0.0045124898 0.61719233
0.37946063 0.48117039 0.2458054
0.74555647 -0.38567343 0.39749649
0.48368105 -0.49736777 0.75012666
0.074751906 0.65438622 0.033144537
0.26035884 -0.18417673 0.44445774
0.52097136 -0.35216853 0.26848558
0.1512087 -0.97621208 0.68197238
0.4506115 0.51390022 0.16121855
0.70769107 0.80971414 0.29885373
0.37261662 0.83688158 0.81876349
0.98980892 -0.19008732 0.98838687
0.23561431 -0.91226387 0.86067343
0.63311082 -0.7282114 0.17072606
0.38323748 -0.99061626 0.58381379
0.41638201 0.02732547 0.42013025
0.86083978 0.075892873 0.053086884
0.12932533 -0.36367241 0.83356267
0.81129771 0.16690269 0.64384067
0.97251624 -0.44854498 0.30003494
0.27136999 0.18228531 0.83677256
0.090133466 -0.32726899 0.75297081
0.078520358 -0.54655313 0.41472554
0.93919379 -0.89101321 0.56016129
0.10991985 0.27086097 0.78034896
0.69373363 -0.91003805 0.26089549
0.11386389 0.13195047 0.26241335
0.16695078 0.59821719 0.41513991
0.00051341858 -0.83689797 0.01847796
0.64435405 -0.21108511 0.32950705
0.94438899 -0.64258569 0.013152766
0.78116155 -0.13591224 0.68660736
0.53413236 -0.20989431 0.5956763
0.9488579 0.74979466 0.13785607
0.50901926 0.24578686 0.063273281
0.28936821 0.93246859 0.40507251
0.5502637 0.6256631 0.60771155
0.81267709 0.97320187 0.93967587
0.22781697 0.99887276 0.082937911
0.24629493 -0.78342384 0.19871621
0.57580197 0.43602604 0.58586448
0.58895475 -0.50589591 0.063146248
0.27556214 0.20072295 0.61894834
0.87123847 -0.35638121 0.11394425
0.0090945233 -0.90541977 0.71885997
0.072367802 -0.43700907 0.017509367
0.47744033 -0.9238236 0.43002263
0.085151844 -0.28997043 0.0094866659
0.024827719 -0.899122 0.58946413
0.10776563 -0.58437562 0.81379563
0.30648184 0.20572376 0.98251617
0.89234632 -0.34653857 0.93239826
0.95549262 -0.56843156 0.41641271
0.57444096 0.99349165 0.84928507
0.68838519 -0.55178219 0.79117668
0.40724522 -0.93339211 0.022436507
0.42475456 0.93862385 0.80396003
0.85477722 -0.80378383 0.39816064
0.86426389 0.43760207 0.22017819
0.45372799 -0.17411643 0.28849068
0.26752365 -0.8500244 0.93260515
0.25003982 -0.23270765 0.16567437
0.18243805 -0.45807829 0.67430574
0.59885073 0.2639693 0.054175578
0.44813585 0.68322986 0.44313994
0.23931253 -0.95450985 0.90447211
0.26174903 0.28321877 0.84324455
0.065709069 -0.97792113 0.8671689
0.46386969 0.2352723 0.91592091
0.68404788 0.92167181 0.072438605
0.97253853 0.29785359 0.53543812
0.90514368 0.79984361 0.89078397
0.070818081 -0.078253925 0.2016224
0.7451238 -0.13571616 0.086901791
0.79929942 0.27107579 0.66056639
0.24243934 0.23670211 0.64147621
0.14691144 -0.67584628 0.047140561
0.99015599 0.6096071 0.30758214
0.8573249 -0.19690827 0.43228757
0.77324581 0.0054857247 0.010721024
0.84568447 0.63241339 0.85667807
0.38112256 -0.11040147 0.95267498
0.27190652 -0.56949747 0.23110989
0.47352895 0.68669391 0.10839557
0.56043071 0.65166426 0.43381709
0.22099711 0.77363139 0.99855113
0.86247331 0.11920325 0.8250342
0.90961385 -0.37299636 0.71722633
0.217196 0.49324879 0.07328818
0.64948356 -0.84445918 0.11339789
0.66020459 -0.56023675 0.12604617
0.51688272 0.49589169 0.043838128
0.46955767 0.091218509 0.03244818
0.70066756 -0.2323346 0.76618207
0.80906314 -0.21079828 0.29921535
0.24288021 0.83905733 0.074687973
0.24143134 -0.037277713 0.99707204
0.066465542 -0.5565846 0.90961212
0.78369188 0.30321556 0.6794771
0.85698009 0.77739507 0.2225879
0.97037798 -0.21237421 0.61138314
0.09642411 -0.36823875 0.38130102
0.14026225 -0.89035487 0.42312539
0.17271042 0.14302351 0.93847871
0.93889248 0.5961802 0.014262716
0.23810783 0.7401911 0.31104386
0.31279582 0.81175822 0.47029832
0.30986783 0.13503535 0.53916663
0.21947995 -0.68037039 0.82523096
0.89895701 0.1686327 0.76077884
0.12154494 0.6875304 0.35653135
0.7329281 -0.49126393 0.46916658
0.11422912 0.52184826 0.051359475
0.53735447 -0.84263057 0.33421993
0.47583318 0.10199366 0.42614356
0.49009588 0.0073851245 0.76094735
0.80113977 -0.35282472 0.33718252
0.27143806 -0.85943264 0.97988325
0.81060469 0.11456502 0.40627584
0.63583559 -0.93758291 0.68964851
0.39661443 -0.86033565 0.94339907
0.75314575 -0.21392989 0.29357383
0.22231235 -0.50247401 0.78401077
0.27367184 0.36525053 0.44715816
0.60789174 0.15690917 0.049198046
0.034035318 0.66170359 0.88934577
0.79498267 0.71869117 0.042289253
0.13216522 0.29059416 0.50510061
0.11204846 0.82082802 0.18739191
0.51832432 0.61260819 0.76864022
0.20797278 0.4433299 0.47143352
0.15137188 0.10061887 0.90715492
0.44494569 -0.78376365 0.45710546
0.22895648 0.8998276 0.54441047
0.67611468 -0.70558399 0.10754865
0.72531271 0.99618179 0.16078272
0.61465847 0.74531615 0.015156544
0.65694767 -0.6464228 0.14096843
0.1620483 0.95600039 0.077384986
0.34944022 0.87221521 0.64963716
0.11808044 -0.72914547 0.61850375
0.58951396 0.83944869 0.34051612
0.49666891 -0.9132663 0.28484085
0.95377439 0.53455782 0.50283742
0.49818483 0.34029058 0.32872573
0.60573345 0.60592556 0.18864936
0.76651621 -0.66115201 0.84355569
0.78167272 0.18623304 0.63062721
0.92264116 0.28864816 0.52974725
2.6157126e-05 -0.23934163 0.94719154
0.64966333 -0.33531925 0.57260865
0.26816705 -0.85962033 0.3493976
0.60868317 -0.026174689 0.5711323
0.89352405 -0.33745638 0.021823436
0.39636144 0.57178515 0.14862925
0.72508717 0.85845906 0.00074775983
0.91373652 -0.81573099 0.46752471
0.75729221 0.26790616 0.59124941
0.38791946 0.39996466 0.87702233
0.91766667 0.40127254 0.51223552
0.86485821 0.88443792 0.26552913
0.43746686 0.29279083 0.60833675
0.78686446 0.72695005 0.44781321
0.35799676 -0.59684795 0.2410641
0.3798202 -0.77877563 0.53249979
0.52844942 -0.52441698 0.42966899
0.52919722 -0.83759022 0.093354367
0.99672192 -0.97297913 0.5387125
0.58797127 0.42299345 0.90671176
0.46499363 0.30632788 0.27473724
0.97722918 -0.45076054 0.29242599
0.24275827 -0.57741731 0.57828182
0.85109502 0.7658062 0.47282082
0.29890823 0.66564369 0.26088384
0.53997231 -0.34334692 0.44530833
0.072472125 0.079124831 0.35481998
0.50214112 0.5389846 0.17806819
0.59549546 0.37508038 0.75860864
0.13420796 -0.22635484 0.72706848
0.040919751 -0.97667283 0.61319506
0.31565699 -0.11521525 0.36417982
0.60808295 0.022698661 0.5526315
0.18636478 0.57744861 0.5279476
0.65918559 -0.4771401 0.86126047
0.92006946 0.52147621 0.57439351
0.36537778 0.14508261 0.81597602
0.7201978 -0.74786174 0.58675575
0.89826596 -0.97308785 0.35425735
0.6568746 -0.2626895 0.70973027
0.38394305 -0.21670204 0.53019679
0.99713808 -0.43385294 0.32789248
0.36131793 -0.029704301 0.36834645
0.91394943 -0.71146524 0.25989541
0.441897 0.24781431 0.45035261
0.30315748 0.25128639 0.18078214
0.87755102 0.52017534 0.98368382
0.69352704 0.53006417 0.28872657
0.2802828 -0.55663729 0.1892648
0.63454014 0.28709173 0.22401102
0.34427035 -0.51575524 0.29967698
0.87446713 -0.65885037 0.69099993
0.20235962 -0.59295422 0.69040585
0.57070607 -0.89548403 0.87617654
0.83060151 -0.80063367 0.72113281
0.28095412 0.35724056 0.48615855
0.46173626 0.23479174 0.61656207
0.44542006 0.91114467 0.46716332
0.73414665 0.92528409 0.21603058
0.92341143 0.65229023 0.62177241
0.14742245 -0.13419166 0.41145733
0.44709942 -0.4108344 0.1982803
0.13809934 -0.29285327 0.34642121
0.82850516 0.24245045 0.40851155
0.70468169 -0.22747467 0.91249889
0.42581451 -0.17976868 0.71964365
0.91197306 0.90704459 0.40433952
0.52853513 -0.82195222 0.78256243
0.99569845 -0.11462089 0.44106808
0.21172902 0.055950761 0.73411387
0.83350146 -0.57292676 0.37143007
0.24495876 -0.21795544 0.8832134
0.44323906 0.68701172 0.59735632
0.78966027 0.11227047 0.88220531
0.19817184 -0.65364444 0.99765581
0.11067071 0.63708133 0.39406046
0.8303144 0.23573413 0.25220135
0.23465391 0.66248941 0.55576229
0.017216317 0.44741127 0.59346986
0.45828441 -0.96613759 0.55458891
0.19239831 0.70893466 0.66313034
0.56382835 0.9568727 0.21877125
0.44704175 -0.88117385 0.91251147
0.044398058 0.60184085 0.4347569
0.92660338 0.51043272 0.66168404
0.92425919 0.043968156 0.31442565
0.31831965 -0.44031236 0.87914032
0.570521 -0.70761698 0.97239012
0.1262833 0.15319887 0.061338335
0.71975321 -0.93258065 0.36201558
0.27434209 0.68733472 0.49619427
0.93747246 0.87875324 0.87533176
0.15624371 -0.76915938 0.69770825
0.068755202 -0.54925644 0.30974507
0.50351208 -0.21908745 0.11995373
0.16519611 -0.0061271451 0.04083309
0.47962174 -0.090144157 0.79202682
0.35876209 0.43590614 0.77787453
0.33115217 0.75007147 0.78093851
0.39249051 0.73773104 0.24228686
0.75450611 0.45483553 0.89603359
0.25070038 -0.67154175 0.11360863
0.1260321 -0.85935622 0.77822542
0.82374036 0.57840389 0.48724031
0.13348544 -0.24599104 0.12285856
0.25343916 0.013814629 0.68273604
0.29427224 -0.0050978325 0.56093311
0.086299092 -0.066994257 0.0096512567
0.86417359 0.49061474 0.58465266
0.6451121 0.11514045 0.87940729
0.88739896 -0.15955466 0.44850403
0.78343248 0.37546405 0.95507318
0.89704114 0.67706931 0.61788607
0.67526656 -0.13591273 0.34945413
0.16250688 0.53835887 0.58453435
0.28536543 -0.78968328 0.98481059
0.96810144 -0.076070979 0.86470866
0.52903455 0.23888348 0.10336877
0.53868586 -0.55243695 0.67318106
0.12333853 -0.2968334 0.63548386
0.002745837 0.073113456 0.35229278
0.45124987 -0.75526166 0.31980205
0.40632305 0.096794531 0.41334346
0.024209101 -0.13987739 0.33062521
0.37366325 -0.01453382 0.38139236
0.95819753 0.25373778 0.68559873
0.94300818 0.65881026 0.28407729
0.80771685 -0.8894605 0.96885496
0.91108561 0.044831581 0.51780623
0.58426666 0.21175805 0.71186954
0.21975052 0.3490499 0.7933318
0.5720433 0.91154265 0.65822661
0.89184535 -0.77230537 0.42016247
0.3051888 0.43814966 0.85736495
0.63581401 -0.8786884 0.45707425
0.017206373 -0.96881062 0.34214902
0.7028051 0.18159769 0.19532521
0.98688239 0.56743866 0.57753599
0.95573729 0.12171811 0.49843264
0.47354352 -0.6649493 0.54266781
0.18541308 0.32257694 0.58964878
0.97874486 0.92474216 0.087879643
0.63697147 -0.48298961 0.99243355
0.057133947 0.77645099 0.92119652
0.91449887 0.56715113 0.22362277
0.37157312 -0.57253021 0.48424655
0.71372211 0.56772357 0.68787849
0.90904737 -0.088158466 0.69922727
0.48658332 -0.30129284 0.62166166
0.98501599 -0.62411648 0.12836266
0.52768373 0.64653718 0.85481417
0.11733256 -0.41621834 0.15330903
0.20521221 -0.56764477 0.34364924
0.19764574 0.28905249 0.83917826
0.11884227 0.013996057 0.97052127
0.34246504 0.59265208 0.11907068
0.8267116 0.27875838 0.97042513
0.51459008 -0.26887482 0.808662
0.21381736 0.060292009 0.6026361
0.83547902 -0.68890953 0.87015378
0.96384168 -0.30472144 0.32308453
0.81865585 -0.43809378 0.75476015
0.9719649 -0.17748386 0.82340729
0.31561413 -0.29519704 0.94918835
0.1547924 -0.35308361 0.98946828
0.12531368 0.77016795 0.40132129
0.24438436 0.10574704 0.52689648
0.21480952 -0.16474867 0.56151897
0.023471501 0.52611959 0.082724802
0.62610763 0.30006978 0.58894664
0.49626142 0.49215272 0.62285221
0.81934595 -0.57505471 0.77409029
0.57410616 0.023189707 0.13054064
0.39751342 -0.19610371 0.68463671
0.34670174 -0.45648396 0.35757503
0.33617002 -0.19079991 0.37297839
0.73749131 0.028418237 0.21509331
0.26438776 0.76889402 0.57179832
0.82590675 -0.057530973 0.14232074
0.9086315 -0.75214958 0.54832214
0.49757814 0.060921736 0.91816521
0.12043034 -0.97177982 0.10666409
0.89452064 -0.26647261 0.2671279
0.025061274 -0.39080137 0.74320579
0.70969796 0.94428635 0.37407613
0.067272991 -0.2472133 0.13026014
0.44025138 0.6273517 0.1308285
0.65534467 -0.15326017 0.3462064
0.22714303 -0.85792381 0.58505577
0.36946377 0.5736528 0.45001277
0.91778588 -0.54743993 0.8112312
0.83595109 -0.52592331 0.9917956
0.94261521 0.20010877 0.74646616
0.20974308 -0.5468275 0.89865011
0.95294887 0.93807083 0.39753586
0.32702503 0.3017202 0.2325916
0.45728517 0.3142885 0.80513865
0.58811367 -0.91847718 0.64207345
0.93432003 0.43867451 0.30491495
0.5193758 0.91186309 0.87638801
0.9693886 0.80115837 0.94543922
0.7806198 0.5987131 0.13492073
0.7724154 -0.27052748 0.21892291
0.51888156 0.21662641 0.32798636
0.4175317 -0.13592896 0.14674778
0.81506753 0.21532246 0.032782182
0.047659144 -0.92041922 0.35906795
0.85279775 0.48526418 0.34069842
0.4948712 -0.79873323 0.54947191
0.79978615 -0.82994246 0.12770917
0.67617416 -0.36051309 0.62373233
0.62161332 0.67047662 0.9557066
0.7565341 -0.70875311 0.23029605
0.97545701 -0.7646749 0.71462858
0.30344337 0.11190983 0.15190999
0.45019114 0.86528742 0.91621643
0.48297334 -0.75175536 0.13780805
0.84204125 -0.11186677 0.94751334
0.18273969 0.63169295 0.69153869
0.73221159 0.62099999 0.95493984
0.85992074 0.42970717 0.18772957
0.4836531 -0.48962545 0.20113909
0.43935969 -0.66292113 0.98696405
0.66965574 0.10992886 0.29167053
0.38428429 -0.71790296 0.013908734
0.53619426 -0.20834576 0.55121446
0.45241073 -0.059679359 0.13617937
0.59021878 0.042384785 0.57394207
0.53773212 -0.82063049 0.50657588
0.2292708 -0.21005072 0.23899589
0.18421063 0.78598726 0.64759004
0.3719402 0.96864176 0.67779756
0.57307929 0.9366259 0.46453911
0.56004333 0.4194122 0.22673769
0.85171384 -0.36637297 0.29237962
0.86562258 0.44334143 0.8082127
0.41683707 -0.93612206 0.80701911
0.55301642 0.57481724 0.64786685
0.12695849 -0.53857648 0.67145419
0.63353437 0.92496365 0.42725319
0.87253028 0.13549504 0.042972945
0.52012032 0.73250461 0.14234579
0.19791786 -0.61353093 0.68107831
0.66245699 -0.61136472 0.88946652
0.88919467 -0.025671698 0.48213908
0.1815743 -0.744542 0.6110059
0.98978698 0.097311884 0.19228347
0.79680616 -0.25186548 0.36377981
0.44467297 0.09605924 0.073008284
0.11612718 -0.22722107 0.011507559
0.54338038 -0.6007064 0.13421746
0.5863533 -0.59468961 0.62886757
0.72869909 -0.69879615 0.69659692
0.4097774 0.42405286 0.32436964
0.29924393 0.88378626 0.80385619
0.78138304 -0.037498824 0.14896536
0.39238894 -0.54814821 0.91091162
0.58467239 -0.70784128 0.22587429
0.94845223 -0.47419313 0.66779548
0.0214605 -0.66783434 0.74325109
0.032968059 0.50118434 0.69123691
0.16718552 -0.1811498 0.15934314
0.79605305 0.25380507 0.82536721
0.49265 0.74267477 0.15384828
0.81701964 -0.29512838 0.37152401
0.62087584 0.77402258 0.77077401
0.76984119 0.39346907 0.15981105
0.68075281 -0.37291092 0.34565422
0.90662712 -0.95030016 0.97617036
0.5744226 0.12272487 0.72281367
0.31767365 -0.22887215 0.012837368
0.0089105787 0.13040382 0.8892144
0.16825372 -0.06694258 0.49429047
0.99362093 0.56555772 0.50914395
0.14746921 -0.58346009 0.82324141
0.5189932 0.46033236 0.91872185
0.28976721 0.95239311 0.40659124
0.44957829 0.99003404 0.47913301
0.79523253 0.32138965 0.50012702
0.7714029 -0.95748085 0.5425815
0.49421656 0.92620164 0.61800408
0.50705391 -0.62826943 0.86061215
0.39626831 -0.21558362 0.89927328
0.89055878 -0.53453714 0.43058446
0.39970273 0.83892298 0.77891523
0.22294414 0.78858298 0.74812192
0.141666 -0.72305602 0.48716974
0.54825723 -0.24414219 0.90697044
0.027390249 -0.4825168 0.23339823
0.52751726 0.087627061 0.13424861
0.070098773 0.798455 0.35277265
0.68810284 0.15115134 0.58020723
0.548715 -0.035433669 0.97589558
0.44798827 0.49250498 0.36520484
0.8785727 0.47764212 0.90198332
0.65748799 -0.37515065 0.95775497
0.40560988 0.70814925 0.30329385
0.89277965 0.12101088 0.098411001
0.79975009 -0.5094766 0.68876064
0.033148292 -0.13361345 0.050513204
0.1673969 -0.62867469 0.90648228
0.52016956 -0.22353251 0.26950532
0.10037681 -0.78778303 0.028796658
0.076272398 -0.3883689 0.67864674
0.44147724 -0.45973238 0.7281996
0.34346053 0.41466644 0.00069658644
0.3012155 0.69515997 0.41485956
0.60450935 -0.66585869 0.37727979
0.70292032 -0.67835552 0.36709026
0.39168102 0.97905916 0.88441801
0.44219422 -0.65109557 0.47184449
0.3486765 -0.64261788 0.74737382
0.61818182 0.37622261 0.5716182
0.6469785 0.18984237 0.84385079
0.32562527 0.26370427 0.99465615
0.053824857 -0.56326866 0.80294949
0.054521445 0.4975065 0.016852686
0.469381 0.72297376 0.12353551
0.84666079 -0.13100904 0.029968403
0.21375106 -0.54695874 0.9695496
0.098169051 -0.43724829 0.076527677
0.57001352 0.99657732 0.70367533
0.3173874 -0.094330497 0.43119976
0.8890056 0.25459453 0.23499662
0.73285639 0.53585744 0.48027071
0.72751254 -0.77289975 0.069005325
0.53046203 -0.046827547 0.95895547
0.5473147 -0.57777679 0.45341495
0.67085022 -0.24473651 0.65079474
0.7008186 0.44281662 0.23985557
0.67036819 -0.64873081 0.27111062
0.74689591 -0.14805353 0.65104216
0.45057121 -0.27868399 0.64915556
0.88177097 0.17159471 0.29424745
0.11676759 0.81441373 0.26496458
0.59703827 -0.80995935 0.28950658
0.66604364 -0.28685808 0.36857003
0.62499905 -0.92112249 0.91701448
0.078414008 0.62138873 0.31211978
0.72920877 -0.33767989 0.9209761
0.96906435 -0.8192693 0.62800151
0.24017495 0.52552509 0.90504044
0.89121711 -0.9459148 0.49946675
0.54037267 -0.8573662 0.98289865
0.83462012 0.98101318 0.19918692
0.099584699 0.83292764 0.14298773
0.38909128 0.1351085 0.61725056
0.75766134 -0.61493772 0.6388281
0.67467582 -0.69423717 0.33125588
0.9867956 -0.23379898 0.72450227
0.90777177 0.21941817 0.78811693
0.53577322 0.22816598 0.59862739
0.44081366 0.78902179 0.85970908
0.94028038 -0.19234489 0.002561789
0.92317903 -0.46133947 0.26218206
0.12236596 0.5178954 0.11884061
0.26535368 -0.02753998 0.64154279
0.88260424 -0.14447314 0.789244
0.52143234 -0.4106808 0.015359278
0.85268825 0.92910045 0.97068328
0.57719052 0.31768733 0.89507169
0.36530745 -0.89365107 0.059634984
0.96393484 -0.85296822 0.11541542
0.82364398 0.1610519 0.71156853
0.82620579 0.32000399 0.14234173
0.088387817 0.43830177 0.67269963
0.20722842 -0.29401413 0.59214884
0.84877121 -0.16380171 0.26925936
0.63801521 -0.092183545 0.62104577
0.65337449 0.54222918 0.95962775
0.62405777 -0.59824347 0.20598152
0.51912946 -0.33287078 0.98810852
0.57876444 -0.13612759 0.21104912
0.69417983 -0.95392877 0.37427017
0.40574837 0.35635948 0.46067026
0.5480901 0.7757504 0.66943628
0.22078975 -0.86282837 0.143556
0.81293857 -0.42426836 0.50027996
0.082197964 -0.52350724 0.3784363
0.70324373 0.14521772 0.10928088
0.66287148 -0.65189236 0.41731602
0.86885303 -0.69541931 0.090658598
0.85696149 0.24280278 0.72793603
0.068010636 0.95179576 0.18885747
0.4422808 -0.76078528 0.47598466
0.90295106 0.64372027 0.85149968
0.57238734 -0.31679228 0.43424311
0.71594334 0.33013716 0.8657577
0.21622331 0.44003543 0.93528759
0.59465963 -0.39777827 0.65819192
0.70394051 0.74579656 0.0051540947
0.1212565 0.18844718 0.87124568
0.21191509 -0.96347737 0.31610176
0.93985116 0.43705454 0.45513767
0.1287086 0.55109495 0.99992198
0.60469323 -0.3013522 0.092796378
0.45619294 0.31801483 0.40646052
0.89043605 0.11518197 0.53306329
0.75619376 0.92634749 0.74186397
0.69148135 0.65932781 0.65390843
0.3496733 -0.1436478 0.22882435
0.35482737 -0.080822892 0.6725933
0.22607309 0.5149318 0.97332376
0.54217488 -0.49251133 0.34206483
0.99731255 -0.057081066 0.15308674
0.99723452 0.17758211 0.86705971
0.090030894 0.98722863 0.15341999
0.49649143 -0.4909699 0.15572363
0.029554702 -0.68128181 0.37425059
0.77141869 -0.1072143 0.18743713
0.42532712 -0.62354976 0.70456415
0.65415144 -0.88218045 0.34294772
0.32674477 0.42147422 0.19324636
0.3000685 -0.46978295 0.98339611
0.64213336 -0.60415614 0.90225452
0.79522008 -0.74243063 0.42580616
0.66227978 -0.24088611 0.40555072
0.81569976 0.5836851 0.27573133
0.97142339 0.061420232 0.90210569
0.34567398 0.63235468 0.2199614
0.5331111 -0.10128982 0.88749039
0.23767531 0.60628331 0.90984678
0.58062303 0.94352126 0.15827629
0.7738694 -0.053053401 0.94888061
0.75726551 0.053613912 0.73679751
0.65952003 -0.18538184 0.52194887
0.085326187 0.92860717 0.39713117
0.49087691 -0.28640428 0.76880485
0.76660824 0.28476587 0.17003328
0.66871393 -0.43153498 0.34268036
0.88867533 0.22402108 0.94065458
0.77616578 0.10778622 0.19278024
0.68601257 -0.86106241 0.77165067
0.84428889 -0.16759305 0.65058959
0.7931695 -0.30431697 0.17166188
0.52996701 0.67168474 0.48795423
0.051915891 0.93799418 0.46652639
0.44904706 -0.51815993 0.26079831
0.21785194 -0.18774755 0.026493618
0.38788521 -0.7520504 0.13786292
0.73056561 -0.31828287 0.78234333
0.67122018 0.49000537 0.66449904
0.86400044 0.7906338 0.12727782
0.63565111 -0.99492329 0.36392596
0.2862407 0.66355103 0.35783961
0.45790258 -0.83809924 0.011273311
0.94585681 -0.24230473 0.7500332
0.4123832 0.21004848 0.97966999
0.67318147 -0.89735454 0.97591507
0.69967514 0.49690652 0.64087403
0.83753806 -0.9748137 0.19450837
0.61988139 0.58619499 0.5243085
0.28438044 -0.21378404 0.54012114
0.41165826 -0.43122962 0.40022269
0.77558422 -0.11919513 0.05349372
0.13342384 0.77593338 0.23673174
0.14469714 0.068774 0.47188565
0.89473033 0.68793392 0.15608661
0.87440032 0.34700891 0.058139518
0.85031539 -0.66923523 0.34807765
0.49118942 -0.79233342 0.36858138
0.68569779 0.20173538 0.060305275
0.21000628 0.42075741 0.61602962
0.75012743 -0.99632972 0.80740499
0.15035015 -0.21711911 0.2850211
0.20384388 0.45407236 0.22053976
0.4405756 -0.31107062 0.10191525
0.91246122 0.42544621 0.39567393
0.068547852 0.1454629 0.3626141
0.12668738 0.66123194 0.029229401
0.47476503 -0.77929711 0.53338271
0.84334642 -0.49440712 0.65741742
0.90365165 0.0059072804 0.065832585
0.51968127 -0.48772004 0.88590598
0.32708627 -0.97021246 0.4815636
0.6121074 -0.77801895 0.21064506
0.83264714 -0.74923873 0.084423646
0.93456239 0.87382352 0.85293257
0.33023632 0.30121627 0.49584183
0.69285041 0.63558495 0.98906648
0.72207981 0.37383613 0.97348052
0.25546256 0.54115605 0.64359236
0.91288 -0.27626014 0.52371055
0.97871256 -0.29219657 0.15395613
0.8646186 0.062117126 0.93455189
0.3461822 0.66748583 0.91899151
0.55682725 0.29984292 0.34400672
0.64125091 -0.97203767 0.68148321
0.49418345 -0.46022192 0.087507524
0.99002528 0.18229908 0.62021923
0.97909176 0.28629011 0.62769592
0.95257229 -0.94058228 0.47851905
0.59616464 0.70341742 0.23299387
0.1198752 -0.36095354 0.50714993
0.27383134 0.86997521 0.10839228
0.2083832 0.17908455 0.321742
0.12737471 0.020446822 0.36773884
0.47138143 0.082991451 0.3482981
0.15286463 0.79216462 0.65909368
0.24037215 0.29342929 0.66273963
0.86059135 -0.75198263 0.38846543
0.48828733 0.87663174 0.36965379
0.96680641 0.68486536 0.26372215
0.19980025 0.67862546 0.13650307
0.70695019 0.37019196 0.87390256
0.81534249 0.78935248 0.95748425
0.13708445 -0.84191203 0.59789324
0.50482333 0.7271598 0.87955302
0.8531214 0.37039155 0.65539634
0.51221508 0.38899949 0.42126492
0.1749547 -0.58143145 0.16622527
0.56342018 -0.16706513 0.86375791
0.93307394 0.17325453 0.15745521
0.19679609 0.16326739 0.5710277
0.33329916 -0.48922312 0.25843155
0.20720175 0.2779001 0.1542186
0.16468602 -0.86787713 0.17738037
0.7625792 0.37328821 0.67192358
0.64213228 -0.97064161 0.31933138
0.29752859 0.64011151 0.20711137
0.71879351 -0.61215335 0.95548272
0.88501877 -0.44114602 0.19214144
0.74877667 0.21255124 0.39560655
0.90623188 0.052355848 0.79887187
0.47725961 0.7173143 0.90908742
0.73569113 -0.92259824 0.83464545
0.88990974 -0.68829715 0.89728791
0.067290112 -0.55933565 0.46475366
0.73921365 -0.45272225 0.88534081
0.05854506 0.42370769 0.81814307
0.26565644 0.36338338 0.92589998
0.22113919 0.61432225 0.59707707
0.41328064 0.053155959 0.20132808
0.80888718 -0.63525003 0.0023752009
0.60775906 -0.77227032 0.13672149
0.51684648 0.012287064 0.47826952
0.35149193 0.50777459 0.98450357
0.2487798 -0.12771982 0.25331688
0.71353346 0.83296371 0.16426243
0.59887427 -0.23978335 0.37273657
0.41701731 -0.95696133 0.30000424
0.34291729 0.099998146 0.11229069
0.93999434 0.7640301 0.67335379
0.14132243 -0.79161102 0.14064881
0.14369763 -0.4036577 0.085203402
0.28041911 -0.56133318 0.76544917
0.75868863 -0.98673731 0.33560464
0.7431922 -0.54774719 0.97305024
0.99650908 -0.87107462 0.34970951
0.16077152 -0.92736119 0.78491384
0.53350806 -0.076495498 0.48577461
0.83351231 -0.9306308 0.40777457
0.94580305 0.069086805 0.74305516
0.61915684 -0.86479139 0.88722295
0.75980562 0.32009047 0.63914979
0.84500903 0.34104669 0.90792316
0.6104582 0.27547902 0.52818841
0.9460628 -0.5649097 0.39723346
0.91911304 -0.73945504 0.97981197
0.26882255 -0.70087928 0.16126473
0.053736407 -0.025474787 0.75973481
0.53951102 -0.34985808 0.70112222
0.94728559 0.94029301 0.58250397
0.69034076 -0.10186554 0.6052081
0.57756376 -0.11158375 0.7716099
0.21671356 0.13886809 0.21843086
0.1246367 0.66177708 0.42394045
0.65282512 -0.035082284 0.37264225
0.050058551 -0.079429775 0.31785315
0.029870516 -0.63830167 0.42383558
0.19113526 0.048518598 0.063326068
0.9508701 -0.97593027 0.53632891
0.65199232 0.38834992 0.95513475
0.23449624 0.90538919 0.99309748
0.83970433 -0.21642344 0.79086578
0.6113143 0.61925435 0.43364313
0.82974517 0.85108936 0.68687868
0.25368559 -0.50765574 0.88617706
0.62632787 -0.0047280807 0.0045884452
0.94418103 -0.51120234 0.3918224
0.36801657 -0.95443964 0.83279276
0.43134263 0.58906442 0.8132742
0.96767157 -0.8113209 0.74104118
0.92280632 0.91349119 0.35914895
0.91590375 0.8987093 0.55482048
0.70676953 -0.53557611 0.96720558
0.1404127 0.95168179 0.50422734
0.82729137 -0.36403811 0.69407427
0.71346843 0.95235455 0.93397969
0.71805686 0.16140479 0.20375565
0.10987929 0.56223327 0.66466683
0.94267207 0.12936519 0.076448143
0.75594622 0.51294249 0.14022173
0.49698743 0.65325826 0.43849155
0.85613638 0.44844687 0.57646573
0.41095689 -0.21307541 0.32575423
0.37816244 0.80755955 0.90478784
0.88238984 0.17212884 0.7375071
0.57646406 -0.15444987 0.19655417
0.51044375 -0.25160632 0.59978229
0.71419942 -0.75764221 0.37102693
0.37886626 0.37596112 0.57361424
0.4553144 0.17327337 0.74387312
0.59553611 -0.97735548 0.83693826
0.034027673 -0.17053632 0.84590721
0.61049342 0.3773075 0.56164569
0.93624765 -0.71456969 0.41779688
0.84103549 -0.59507859 0.10123945
0.57854253 0.22812518 0.49815047
0.77509671 -0.24968651 0.61311835
0.374879 -0.53971595 0.83796549
0.74590594 0.40359718 0.0054847086
0.31952018 -0.83068264 0.92895019
0.063393265 0.94612372 0.34940305
0.9003315 0.64750737 0.62599236
0.74623871 -0.82782233 0.31353849
0.3078844 -0.015441433 0.3792471
0.7256813 0.036331806 0.32734552
0.82692075 0.96345925 0.85190803
0.32507119 -0.28170449 0.88691431
0.93818951 0.46224537 0.63611996
0.77615499 -0.24245796 0.76419193
0.7816397 -0.26644924 0.34757826
0.71058989 0.90321398 0.52650076
0.059992954 -0.080209911 0.73945087
0.68598527 -0.76827413 0.56289446
0.99952376 0.62594587 0.32258561
0.37877089 0.91000974 0.92331225
0.70611638 0.2560463 0.10258144
0.55802441 0.50960565 0.056947351
0.44493872 -0.58091849 0.38619226
0.081058711 0.22683172 0.46134311
0.84525067 -0.69118267 0.85601413
0.19282891 0.83831173 0.31407839
0.71932966 -0.16204049 0.67247421
0.45878056 0.13722427 0.77710873
0.021674994 0.11341354 0.18962763
0.3442606 -0.94804239 0.32782781
0.26757288 0.35777792 0.29294875
0.37015432 0.25899968 0.58314085
0.42710167 0.50593638 0.81152248
0.81329393 0.55887204 0.81605911
0.27463701 0.82140392 0.6022355
0.13065113 0.46284941 0.099001713
0.44472954 0.42933214 0.65576088
0.11720372 -0.63164043 0.89850539
0.89431244 0.45210931 0.14077365
0.083940059 -0.33486006 0.76181281
0.4117679 -0.95621669 0.088968374
0.70471662 -0.44850135 0.97414839
0.2878575 0.90658152 0.30426708
0.099380001 -0.42872268 0.71544451
0.91543913 -0.696872 0.97187263
0.51767462 -0.16431555 0.42112961
0.61667633 0.072160557 0.58971626
0.27243721 -0.067653537 0.21708344
0.17094262 0.64796805 0.86612564
0.31171629 0.84497118 0.85942841
0.073529087 -0.56663442 0.12030409
0.16249746 0.66919762 0.75133407
0.13664582 -0.93792707 0.80946571
0.4409129 0.031073105 0.68089122
0.15635745 -0.19697019 0.82695377
0.12823007 -0.3132396 0.10366748
0.54935968 0.52057666 0.82511067
0.13907591 0.14243808 0.66375762
0.35615933 0.689569 0.39671698
0.22228496 0.27538288 0.21361642
0.081713378 -0.048162639 0.44228372
0.20201746 0.076710403 0.37566766
0.9533515 0.90900165 0.59690911
0.7628172 0.95464742 0.9175306
0.44370845 0.77251989 0.15359119
0.27066225 -0.8159771 0.9073264
0.37432972 0.65200591 0.27773795
0.19944042 -0.39419889 0.92058671
0.86319804 -0.58623201 0.7343781
0.25991505 0.52801591 0.85988575
0.47353145 0.61368477 0.058922477
0.91581517 0.71455795 0.42045668
0.29148284 0.38213408 0.91863674
0.88839197 0.5229947 0.85772967
0.80592257 0.70841712 0.95318007
0.95951378 0.24152938 0.17686053
0.86684018 0.95801592 0.94990063
0.1445781 0.93003726 0.86201668
0.06516479 0.089939944 0.13029203
0.79954284 -0.91430801 0.62085235
0.6594286 0.76226449 0.19312604
0.71835107 0.5530231 0.96741718
0.13880776 -0.87283462 0.6950599
0.057444476 -0.45323572 0.18551977
0.91517413 -0.1571071 0.11968812
0.8683542 -0.18141896 0.32451871
0.045214731 -0.83941084 0.90367901
0.9951154 0.38949382 0.68227977
0.85713202 -0.35226679 0.32407856
0.98742408 -0.37512374 0.22579241
0.60827643 0.59630585 0.60103768
0.80140245 0.51385939 0.89209813
0.76881963 -0.54575282 0.47464147
0.46387953 0.32647094 0.94557673
0.64939928 0.085178114 0.22243461
0.76908737 -0.49711147 0.45880622
0.093606099 -0.23637486 0.56201804
0.99728513 -0.48060617 0.8098079
0.67956489 0.3759957 0.12276255
0.0036434499 -0.25280127 0.23526008
0.22943586 0.16101882 0.0071861967
0.83047354 0.23114075 0.49746338
0.72257173 0.67212248 0.12654833
0.19721317 -0.13390191 0.81307775
0.14278993 0.33606228 0.4147813
0.36522454 0.79043216 0.88483906
0.82403076 -0.52926284 0.40011159
0.38604876 -0.66500688 0.91049945
0.19585666 -0.68676257 0.27801937
0.31861922 -0.50459009 0.63296336
0.55387932 0.96720266 0.59618372
0.5610655 0.49088013 0.36080655
0.058528878 0.61946547 0.89424896
0.18507721 0.48012403 0.89157093
0.99815494 -0.38037983 0.53829217
0.41293627 -0.11915324 0.95410085
0.29777536 -0.91761518 0.46351558
0.69788694 0.38482356 0.97021544
0.6083864 0.17765677 0.15648019
0.88640577 0.10861768 0.3463884
0.51936913 -0.19741744 0.76573247
0.11555284 -0.1441427 0.015550051
0.47635937 0.78230125 0.98793936
0.37060836 0.036161639 0.15754184
0.26217932 -0.056090638 0.46993425
0.80047154 0.59072262 0.14755118
0.75457233 -0.52051014 0.64919889
0.21808794 0.37383625 0.53689533
0.18830338 0.79315567 0.62044847
0.34478357 -0.88655627 0.022620836
0.691172 -0.91810071 0.9786725
0.45690444 0.859541 0.49578965
0.47245449 0.67750978 0.07143566
0.46039385 -0.79207194 0.83215886
0.61793566 0.31689388 0.59103709
0.08786992 0.3404696 0.76285154
0.23542111 0.069087394 0.23244134
0.88461995 0.9734844 0.39991805
0.42151532 0.38865381 0.17578116
0.041963808 -0.37216699 0.83805007
0.064584643 0.18643194 0.019688027
0.043257132 -0.96834671 0.31687886
0.53904676 0.6543771 0.090429045
0.61048245 -0.32593104 0.23458761
0.44264132 0.57085282 0.64092547
0.033678398 0.96434891 0.84773487
0.79652995 0.73540395 0.8091166
0.028971257 0.96640283 0.98858631
0.4288893 0.042169031 0.35635939
0.60467046 0.14035942 0.068916045
0.44272053 -0.63040841 0.47264469
0.46240854 -0.4675518 0.33327776
0.7792874 0.48478651 0.66636527
0.86971641 -0.99109221 0.45984668
0.10430404 -0.85902631 0.87126374
0.74522954 0.82489353 0.37055072
0.59296441 0.65138996 0.10525879
0.40208101 0.099952854 0.72458684
0.39066732 -0.45558161 0.76543021
0.74702668 -0.22205773 0.8482374
0.81594276 -0.08603178 0.99562925
0.28858745 -0.96560448 0.18627821
0.62186521 -0.0012348238 0.91597396
0.28823048 -0.51541305 0.25615209
0.74807715 0.69978893 0.038971569
0.6193409 -0.038735077 0.85546947
0.98989159 -0.39051539 0.46849725
0.095150381 -0.28646463 0.1104963
0.8197372 -0.75309843 0.18138467
0.58516747 0.5982371 0.85694349
0.43340486 -0.60462517 0.97522289
0.42903411 -0.17525315 0.55591077
0.61531234 0.91800636 0.9158861
0.53128624 -0.67046946 0.14557783
0.78743833 0.73338836 0.47957361
0.82640994 -0.29956737 0.55879891
0.68187934 -0.80498773 0.23098859
0.15037659 -0.047468737 0.30525932
0.2608729 0.93939239 0.77019733
0.44225755 0.19776477 0.98216206
0.29920107 -0.13199228 0.010069575
0.27442393 -0.68028706 0.32656452
0.83033472 0.085328571 0.26492465
0.74622083 0.64964116 0.49151525
0.89179862 0.021558575 0.46618301
0.37137225 -0.65794563 0.060191672
0.93017113 -0.56397784 0.6440919
0.16115975 0.95485193 0.32314253
0.46641904 -0.0015035365 0.82193041
0.23661639 0.11137422 0.9058857
0.21877846 -0.92857254 0.42324585
0.22884804 0.79262435 0.36964011
0.55541253 0.30936053 0.93134665
0.82033718 -0.37959886 0.024339493
0.31185246 0.21033309 0.90477067
0.77803546 0.77894533 0.61161172
0.83822715 -0.71249717 0.00033219717
0.48231906 -0.65450984 0.53942925
0.80546159 0.66644269 0.33939916
0.62739199 0.49726212 0.58162665
