# .PCD v0.7 - Point Cloud Data file format
VERSION 0.7
FIELDS x y z
SIZE 4 4 4
TYPE F F F
COUNT 1 1 1
WIDTH 1487
HEIGHT 1
VIEWPOINT 0 0 0 1 0 0 0
POINTS 1487
DATA ascii
1.8258718 2.0015333 0.19838633
0.44643798 1.5213748 0.10313831
-0.012893797 0.026193289 0.3660585
-0.58777136 0.7409693 0.42180258
0.086049885 0.2557953 0.24808232
1.6687307 2.0729475 0.05411246
0.6614539 0.69325465 0.34510824
0.093040206 1.4398743 0.41108558
-0.25141424 0.50938994 0.38021132
0.19722199 0.92967045 0.40369946
-0.18252321 0.41151345 0.4658052
0.33118987 1.5811641 0.34585276
0.76655209 2.0209594 0.35967213
0.17275342 1.4782268 0.32945287
0.49112239 0.49633062 0.38946694
0.92003351 2.1724679 0.032379184
1.6309353 1.9207256 0.043622442
0.71829951 1.5190613 0.019800212
0.29807159 1.1848253 0.2887851
-0.39796412 0.86442041 0.047744758
1.2766227 2.6153374 0.25776842
1.5199275 2.0818799 0.19970106
1.1084577 1.1853671 0.14320104
0.23793358 0.8651697 0.10475559
1.4711083 2.4274955 0.10659697
1.1938462 1.7668536 0.04939938
1.4463828 1.7890635 0.15185572
1.2585636 2.3470314 0.43496779
1.8025261 1.9710792 0.24848257
0.8286745 1.1527131 0.19480291
1.0896852 1.2968301 0.16811001
-0.53831762 0.86942983 0.36679018
0.63374484 1.3918869 0.39398175
1.0574449 2.1832881 0.11574321
1.5592247 2.570389 0.45387712
0.10381383 0.68766439 0.15646581
0.4812634 0.72938246 0.27762178
1.231707 1.2674775 0.1624532
0.32686448 1.6205034 0.22204573
1.7579622 2.2978501 0.33661065
0.065368168 1.4007611 0.40984744
1.4305199 1.4620701 0.40756133
0.52775329 1.234514 0.17560506
0.24494059 0.61773211 0.073650748
0.75483531 1.0899512 0.4311513
0.42723945 1.0261813 0.13757364
0.88929337 1.8917838 0.22529699
0.23639846 0.6577369 0.23794375
0.60106772 1.6715288 0.19531418
1.5742661 2.5824509 0.38619336
1.3438157 1.4264967 0.35832605
0.4792324 1.5261103 0.3694807
0.50044394 0.72053063 0.11935836
1.1016943 1.6093386 0.25116006
1.1067036 2.2292767 0.36964139
1.2794732 1.4723064 0.081399329
1.3996359 2.5194948 0.43583325
0.79225391 0.79594433 0.08479888
1.4229977 2.1842203 0.46326402
0.14464585 0.87722719 0.31971124
-0.092806779 0.14899848 0.34894344
1.0932182 2.0034709 0.21907064
0.33597594 1.6532203 0.29688305
1.0976386 1.9043469 0.47636241
0.19301017 0.69749844 0.37325191
2.0097427 2.0172772 0.44142872
-0.41941804 0.8944934 0.33735862
1.8720729 2.3011701 0.33866337
0.21642752 0.43371728 0.1077962
-0.10974225 0.44817185 0.36680281
1.2373123 1.813957 0.4522939
0.78742552 0.98208636 0.27411687
1.3853308 2.243057 0.23983307
0.73035437 1.174529 0.025047572
0.48165041 1.2226611 0.20341112
-0.020159373 0.64897776 0.206075
-0.34783551 0.47966009 0.17061286
1.0950221 1.8993852 0.32232165
0.30217132 1.3232493 0.39914519
0.70310694 1.8369949 0.096397623
0.33656108 1.0733252 0.30027232
-0.16075742 1.165844 0.3690953
1.1045974 2.2264478 0.17234734
0.39042887 0.7330268 0.32938674
0.2126448 1.1233466 0.091373615
0.970842 2.09115 0.32794932
-0.2981469 0.86610258 0.1205132
0.63374102 1.3819127 0.40489849
-0.39098775 0.89899081 0.2659041
1.5861983 2.3086641 0.16679399
-0.36112252 0.83130515 0.42727944
1.4524174 1.5656602 0.39630386
0.34186152 1.5654529 0.29293787
1.5929335 1.7767966 0.41406453
0.6464175 1.275611 0.23604625
1.2308577 1.4665017 0.13213491
0.40624923 0.83121175 0.043759268
0.58160114 1.6784482 0.3082779
0.093452446 1.3596339 0.2643542
1.279551 2.4298062 0.019784369
-0.21248615 1.0944967 0.44137123
-0.31691951 0.58187568 0.48140866
1.7536764 1.8740295 0.41401356
0.31356448 1.557161 0.47901896
0.33573988 0.80579895 0.20147248
0.8876394 2.2568183 0.28478521
-0.17221664 0.19523565 0.43503213
-0.3632367 0.75756538 0.32282615
1.4096014 1.6005521 0.27048889
0.49872154 0.51191103 0.17716555
0.43565774 0.74285078 0.13925378
0.14275753 0.53826928 0.45702586
0.1663703 0.35690379 0.49957711
1.6110935 2.4252021 0.43925485
1.331822 2.5264437 0.10544582
0.2483075 1.0768681 0.089523658
1.4527123 2.2889459 0.21943766
1.1113555 2.0790319 0.11570105
0.56508499 1.1219324 0.1832123
1.5442333 2.4379582 0.18787549
-0.021855308 1.2647058 0.29648465
1.1625507 1.2619072 0.43631917
0.89301455 1.1667957 0.0036829279
0.9256112 1.1306107 0.2915138
0.73195386 0.80882835 0.21387631
0.95846003 1.4770597 0.0068167131
1.4217738 1.7733793 0.30246994
0.40682417 0.4076786 0.14459525
0.61653256 1.1797261 0.34147054
1.4372447 1.9136219 0.15745004
-0.094129182 0.79653156 0.11231808
1.4667791 1.7513789 0.14744592
0.85330248 1.8245057 0.24424219
1.233331 1.4757279 0.31672046
0.092001818 0.8479929 0.3438997
1.300589 1.4542065 0.027252378
0.79698431 2.0156529 0.15156369
0.53029156 0.60624743 0.15186578
0.8443808 1.5190896 0.35098478
0.32042629 0.69787699 0.01940956
0.87136316 1.4829479 0.33430567
1.5186355 1.7887262 0.43492693
-0.42342612 0.73926723 0.27829912
0.86840272 1.5199021 0.36399943
-0.065852307 0.89897865 0.13128263
1.6411648 2.1100473 0.1855946
1.2880139 2.6944423 0.11645897
0.32740754 0.69846857 0.14331342
0.57780778 1.7366922 0.381859
0.48297927 0.56708461 0.015307983
0.17294188 1.0418175 0.23153588
1.7471606 2.3042767 0.32702735
1.4184387 2.0808351 0.23810151
0.78689754 0.831182 0.46844134
0.071041554 0.39303476 0.3095606
0.70993137 0.86811507 0.4753356
1.5407066 1.6121621 0.47258309
1.8638209 2.277235 0.10377295
-0.03522208 1.1496922 0.013500478
-0.0043557729 0.11636616 0.043236196
-0.14186941 0.38377234 0.35043013
0.87232143 1.3342286 0.047400407
0.26235503 0.4764733 0.28159291
1.0028542 1.7563324 0.29724979
0.79161608 1.6997863 0.4110916
0.42774919 0.44772133 0.46701798
-0.20237112 0.86855733 0.49228132
-0.30176046 0.73530638 0.13844532
-0.047234118 1.3613228 0.057375751
0.69848192 0.73016202 0.1000574
0.84160042 0.95391482 0.28589982
-0.16072907 0.68710202 0.44920871
-0.082764223 1.011343 0.02491094
1.3591756 1.9587982 0.29130569
0.79085243 0.80672884 0.11239236
0.26773426 0.57543421 0.11945358
0.01677236 0.54653436 0.49808395
-0.08823289 0.58604443 0.36474246
0.28012607 1.3924329 0.36274251
0.99255019 1.1668582 0.37394312
1.1178052 1.8906183 0.41365227
0.12172628 1.069997 0.21340582
-0.24852611 1.0092709 0.10023113
0.011273214 0.96084785 0.31222972
1.6880218 1.75591 0.3178429
-0.096986227 0.25195813 0.42663124
0.31592792 0.85264117 0.11393041
0.22483021 0.9274807 0.35232344
-0.62777877 0.63239133 0.24558331
1.2584127 1.8241721 0.30721048
0.92930156 1.0836552 0.080441162
0.36433858 0.91593331 0.4157055
1.142952 1.9481283 0.3604039
1.4061766 2.5353932 0.19612922
0.74265283 1.6056333 0.22013132
-0.056003004 0.85863471 0.34350178
-0.56204176 0.74211895 0.033258583
0.43637899 0.71042979 0.28168303
1.930392 2.2059803 0.22722046
0.33722925 1.6403458 0.4272466
-0.10909339 0.45079523 0.48181885
0.01881092 1.0054568 0.17683704
-0.14689365 0.45589882 0.46150988
1.432349 1.9347845 0.36074826
-0.24824652 1.0369509 0.16585791
1.2590264 1.3975543 0.48923117
0.56504786 0.76360148 0.45032164
0.51501727 1.0958405 0.047213227
1.7278086 2.2732091 0.14464842
0.24090713 1.4454993 0.10536971
-0.12470974 1.193783 0.30332023
0.33454967 0.58025146 0.15215224
1.0333048 1.3820083 0.36527157
1.0159229 1.0727907 0.042909335
0.29367709 0.61344635 0.49729529
0.55458915 1.7598853 0.04627227
0.99456614 1.2285318 0.11647157
0.51532239 1.2862407 0.32182357
0.75590169 1.4462789 0.014651742
1.0885252 2.341038 0.44053936
-0.056821443 0.13783549 0.40669695
1.0775905 1.5771811 0.49356565
1.3205655 2.6252606 0.11685094
1.107949 1.6946683 0.13695674
1.1388106 2.0279045 0.25001225
1.4486965 1.6950682 0.17614879
1.2744968 2.2619011 0.25886816
0.054169692 0.22788164 0.031428941
1.0525213 1.9602935 0.27551416
1.2501963 1.8869426 0.21834429
0.984424 1.648175 0.28716591
0.85321754 0.98767877 0.46379787
0.87538797 0.91091102 0.42507723
0.90404165 1.8737705 0.13251385
1.6644207 2.2755077 0.44685599
0.78695852 1.0317535 0.033961572
1.6520016 1.6613824 0.38306177
0.58195734 0.68535525 0.44447821
0.21316323 1.3208327 0.26542413
1.5663211 2.30549 0.49054796
0.63969743 0.84218585 0.22521937
1.5512232 2.3673437 0.2727586
1.0999141 2.5114675 0.2853179
1.0261817 1.9494591 0.12816881
1.6388425 2.4612157 0.34422067
1.8173596 1.8317566 0.43076879
1.4092157 2.528074 0.4340854
1.4089768 1.5360591 0.47064206
0.91775185 1.5561662 0.36226237
-0.015664341 0.4991402 0.12359808
-0.3027465 0.70601916 0.19518855
0.70679063 1.6075317 0.4837307
-0.15210314 0.5382182 0.48279023
1.2695647 1.5375528 0.30921805
1.8371028 2.0575633 0.0999709
1.2751077 1.2977268 0.10506102
0.32516965 1.6602186 0.00063720089
0.26178509 1.1642991 0.045567602
0.43201703 0.74495679 0.27128115
-0.23293352 0.24116486 0.45329207
0.22423664 0.8327592 0.30994457
0.6666311 2.0465944 0.12840463
1.2403606 1.3348155 0.37247008
0.69949287 1.7296536 0.46721819
-0.051930595 0.86223853 0.045162745
0.65051103 1.0080781 0.053159773
0.76534915 1.7847123 0.025170842
1.2374786 1.3179897 0.34425771
1.2346433 1.7074789 0.45489863
0.26289961 0.73847896 0.12251772
-0.1114314 0.7164799 0.33766294
1.4584546 1.7765609 0.32555369
-0.54728705 0.62921125 0.3589485
1.3352187 1.9072189 0.2231653
1.0610859 1.9031888 0.046372902
0.97626364 2.3712296 0.17279196
1.483898 2.3146708 0.033191271
1.8718842 2.1402664 0.061656207
0.72077203 1.9698615 0.22882883
1.0696335 1.2383024 0.39697152
1.4885907 1.8589424 0.18968238
0.96779048 1.0022671 0.30214995
0.21402337 0.27580801 0.21810493
1.1965066 2.3391037 0.42033756
0.23505743 0.95153266 0.21806589
0.58099222 0.99908495 0.21126084
1.3880984 1.6581672 0.0049834168
1.567332 1.7605709 0.099870823
1.3804783 2.4705949 0.041490659
0.5524472 0.99766225 0.10112409
0.26451904 0.41136488 0.23206317
0.74093032 1.544462 0.24425249
-0.18011494 0.78669387 0.26609665
0.86306429 1.5941963 0.17006578
0.32732013 1.4539822 0.42337802
1.6962559 1.9353969 0.071196131
-0.036471516 1.2180912 0.16667989
0.13712764 1.0867778 0.23500012
0.62610489 1.4452326 0.12041456
0.54378331 1.8796141 0.27782184
1.5672759 1.7141879 0.32973969
0.049617551 0.95832694 0.11383105
0.98479658 2.0956991 0.45564958
0.28999215 0.80576783 0.21414381
0.71463645 1.8241795 0.11247901
0.49138823 1.3972687 0.1970281
0.59651119 1.8962649 0.14058302
1.8067966 2.1003053 0.47633508
0.33727443 1.3212289 0.26594046
1.1513574 1.5288974 0.23822796
0.36893144 0.42607921 0.29016918
1.5999078 1.993037 0.11144646
0.15522248 0.16097003 0.0042097513
1.9057533 2.2767541 0.18656398
0.26983222 1.4871051 0.078846715
1.1393709 1.5719825 0.39912382
-0.56149274 0.70204425 0.35865617
0.090873636 1.2425643 0.46242714
0.42116141 0.71147305 0.31030759
1.1027421 2.2864718 0.44378814
0.56674236 0.60126221 0.46399295
1.1990018 2.43117 0.10298513
-0.50219005 0.83537555 0.10501719
-0.47430736 0.8432138 0.23618582
0.73150051 1.2204539 0.16655676
0.6141265 2.0068643 0.31950808
0.86982667 0.8952015 0.26623586
0.047915917 0.51777005 0.17342001
-0.30026463 0.54713428 0.27606067
1.1584967 1.72142 0.19457237
0.72534269 1.6776009 0.20677699
0.67465585 1.4227576 0.1424142
1.0560538 1.9152175 0.11531505
1.4401196 2.4222522 0.081129134
0.70263189 0.9212023 0.25400028
0.97244054 2.0646746 0.24640745
0.61961353 0.88597673 0.25537878
1.6548756 2.1098008 0.42149732
0.22816916 0.76538426 0.22109807
1.626516 1.7094898 0.42012152
-0.069794193 0.81416076 0.25679564
1.1650242 1.3339034 0.02128958
1.2740245 2.4333274 0.32504982
-0.29467732 0.73786938 0.17228609
0.48599222 0.64560336 0.24956241
1.0574383 2.2294211 0.13572545
0.43771127 0.69734401 0.22989908
1.6008524 1.7011638 0.39073941
1.1022015 1.5336972 0.080673628
0.070026569 0.19931078 0.11000929
1.7283901 2.1057966 0.42253456
0.28007343 1.4904557 0.48224241
0.45961225 1.491565 0.39211792
-0.35650387 0.82317954 0.25717828
0.89295167 1.03562 0.31360936
1.4039454 2.6422336 0.22796787
0.37639031 0.57881665 0.31976193
0.80143344 2.1045318 0.35522732
0.60567033 1.3731881 0.0077841384
0.90305001 1.7603469 0.053493008
1.4378556 2.1590011 0.18692632
0.81410944 2.1254313 0.11486106
1.1206809 1.6681817 0.47971144
0.58519661 1.2882559 0.3967925
1.3548831 2.7007997 0.44723341
0.59683818 1.8772675 0.38503438
-0.009390776 0.17522727 0.4566029
0.86291659 2.0161898 0.41731775
0.62599522 1.0246743 0.18867625
0.21512105 1.5015991 0.49177647
0.5497033 1.6209201 0.24673992
1.5599478 2.1967978 0.21036223
0.16823809 0.32049543 0.40393296
-0.23008104 0.54666048 0.15250197
1.4845266 2.1989489 0.12835532
1.5554128 1.6803232 0.08105544
1.0400156 1.2202048 0.14632778
0.37604615 1.5159376 0.054071404
0.4572503 0.73315132 0.19502574
0.97161585 1.8197569 0.14986441
1.2820626 1.4395312 0.028596705
-0.4185532 0.99116397 0.25375721
1.0995893 1.2580041 0.30758831
0.63924819 0.90318948 0.082207888
1.3794534 1.4570063 0.33479428
1.3847296 2.5408611 0.37895679
-0.062298194 0.43302661 0.44266331
0.24318737 1.3691734 0.3456758
0.9812994 1.0898725 0.44322154
1.3434948 2.3825254 0.24308468
0.11150304 0.64351803 0.29875824
0.13739346 0.86027873 0.29716852
1.5281687 1.6227047 0.35317662
0.45476198 1.063444 0.44649395
1.037904 1.1778591 0.47391301
0.38983706 0.42410889 0.38266727
1.9358264 2.0936744 0.057791028
1.4238408 2.1191423 0.45588723
0.42390329 1.8095955 0.49427357
0.26911607 1.4826014 0.36162636
1.881707 1.9326524 0.049722068
0.86163181 1.2451346 0.30530059
0.18305194 0.20263235 0.3387242
1.4284191 1.9540682 0.05392579
0.83211827 2.096355 0.10340739
1.2928897 1.4142283 0.11552431
0.83061242 0.88090438 0.171332
0.48530182 1.7165881 0.41715822
0.63300413 1.1945764 0.40707439
0.31675601 1.4622341 0.33610624
-0.19893338 0.80378431 0.35411817
0.36799854 0.65875816 0.4897069
1.5989985 2.0183196 0.4966296
1.0581222 1.1907253 0.18247463
0.79883099 1.9075919 0.12944981
1.4934719 2.0903919 0.17234947
-0.42297319 0.74445254 0.19013035
0.64405203 1.1312275 0.1254558
-0.012012623 1.0843563 0.32400158
0.0043458003 0.27949792 0.22898927
1.3295153 1.8062844 0.083503515
0.53946495 1.3584863 0.18630257
0.6000154 1.210596 0.33455494
0.21090813 1.5711045 0.38143727
1.2411187 2.0892425 0.27344349
-0.22119643 0.40733504 0.48448664
0.45644054 1.1921318 0.39723396
0.96721536 2.2946665 0.069476485
-0.09345828 0.17722717 0.45710146
1.2338568 1.5991567 0.054382421
-0.43857765 0.97198892 0.22294576
0.30647933 0.9354828 0.012513538
0.7951256 2.0276661 0.22838634
0.50330639 0.91563761 0.20928837
0.15233395 0.26057196 0.0091454126
1.2814333 1.4517175 0.23136485
0.9408536 1.6606619 0.49147099
0.66831398 1.0612026 0.46079582
0.94911629 1.3699279 0.05649757
0.29494423 1.6600938 0.18565063
1.1438742 1.2726139 0.18436123
-0.23856106 0.30416602 0.40674752
0.051170852 0.12061498 0.34251642
0.7836414 1.3260669 0.48829749
1.6027591 2.28282 0.026565421
1.8931415 2.070039 0.086769983
0.3198331 1.3639024 0.34126064
0.70250154 0.90886283 0.48016778
0.14966491 1.129041 0.12894717
0.7706309 0.98747271 0.11160041
1.1555319 2.1778696 0.15711677
-0.19454421 0.84966189 0.34899977
1.5025084 2.6039765 0.37355196
1.1898509 1.5803415 0.06532833
1.1997117 1.4711818 0.30576611
1.3589959 1.5373126 0.36830881
1.4465072 2.186069 0.23744306
0.50447243 1.7811557 0.31040278
0.91432065 1.2030256 0.15666451
1.1683799 2.0431194 0.23332965
1.7934002 2.3650601 0.094780654
0.22948359 1.019516 0.46396327
1.7328569 2.477504 0.35339105
1.4417914 1.6956223 0.49145031
1.2738072 2.4179358 0.087429464
0.67413121 1.3694826 0.15047392
0.21709025 0.70908689 0.4119485
0.84353781 2.0974104 0.3633242
0.3933607 0.93880188 0.46539682
1.2298888 1.4316162 0.27466395
0.11253241 0.28619963 0.47677621
0.30648607 0.89648646 0.25609481
0.15897512 0.73821557 0.019367322
1.8424908 2.0533223 0.10911013
1.8980339 1.9252328 0.01362076
-0.19295701 0.51544654 0.25946462
0.29108688 1.3082162 0.43341169
0.13446474 0.71769655 0.37672263
1.4538916 2.4811776 0.069565229
1.5706054 2.0708463 0.14088663
0.54813015 1.1812817 0.20228727
0.2491045 1.2832469 0.41088393
1.1860911 2.5192969 0.11567635
1.3260642 2.5436609 0.19021654
-0.26244539 0.81535995 0.19983283
-0.25840566 0.92689621 0.45029131
1.2829658 1.5871551 0.30990082
0.85842866 1.4466717 0.0161044
0.38666901 0.8723883 0.37930486
0.78200746 1.0673304 0.056166679
1.0915035 1.953297 0.28001952
-0.4269765 0.94560081 0.14564405
1.4057986 2.5992916 0.11700351
-0.16259605 0.90659177 0.04748895
0.55227196 1.8057647 0.42855069
1.9957825 2.0578918 0.34761816
1.3065329 2.3253491 0.45516533
0.82293379 1.1959033 0.16314065
0.68141609 1.4740714 0.33486834
-0.13887304 1.2702281 0.43574524
0.29906201 1.3088832 0.24043527
1.4006468 2.5833428 0.22571462
-0.063166343 1.040346 0.14767814
0.30923823 1.6607492 0.025693124
0.82481742 1.5481271 0.46886972
0.55317801 1.213499 0.49082869
0.0084697409 0.46520445 0.35103464
-0.51822054 0.61145985 0.48289928
0.5217855 0.95574814 0.26314524
-0.36736792 0.4437131 0.26133776
1.2133517 2.5604146 0.11836348
0.1552203 1.4160661 0.036509648
1.6570898 1.8294486 0.42666021
-0.16601646 0.66300482 0.40449151
0.25460628 0.46039549 0.1602201
-0.17191449 0.62276703 0.39367878
-0.28977081 0.6628021 0.055158891
1.1840031 2.1676559 0.45456123
1.5723021 1.6342524 0.10799018
0.55468822 0.64208698 0.39475062
1.0344894 2.3798103 0.37100923
-0.13943149 0.31543791 0.31678554
0.14148287 0.34431818 0.37772357
1.8688174 2.2373157 0.17082685
1.3444422 1.9512743 0.24358433
-0.17226385 0.58485234 0.024546679
1.4358019 2.3172619 0.36133206
1.8183182 2.4027843 0.20910582
1.7982188 2.0373228 0.23100859
-0.064400516 0.5736286 0.26190871
1.7484415 2.1103568 0.23755145
1.1718456 1.5924298 0.39837208
0.31356555 0.89608347 0.4700852
-0.18245812 0.35455725 0.10036895
0.7001195 0.92149353 0.31491646
1.6647955 2.023699 0.082597472
1.8505344 2.0462456 0.39424065
1.265806 1.4543377 0.10088061
0.09949629 0.15232843 0.18541664
0.99471134 1.2172862 0.41099399
0.048549332 0.14317667 0.038950425
0.59568226 1.6117347 0.18764941
0.67001009 0.67506534 0.39360061
0.51440907 0.57683069 0.083464205
0.66996962 1.272929 0.16173173
-0.022915626 0.39532831 0.28862327
0.38515919 0.68811631 0.35781765
-0.51689702 0.69277465 0.4244737
-0.13086766 1.1627456 0.4431527
0.99422908 1.6109613 0.021844778
0.58465421 1.2652951 0.055300597
1.0891109 1.0913438 0.41452938
1.6610606 2.1116521 0.41631669
1.0277729 1.8421109 0.43838605
1.7651719 1.8129292 0.15156436
0.26795238 0.43984726 0.29943594
1.313598 1.8432515 0.40654743
0.6810565 1.2693357 0.33423096
0.18864594 1.1208845 0.2915923
0.22037165 0.6067934 0.0096400641
0.0047263 1.0077978 0.25028294
0.58304453 0.89872074 0.25107241
0.29874477 0.45777828 0.41038054
-0.53460747 0.58105397 0.19829251
1.4360636 2.3302119 0.21517727
-0.16019017 0.96989131 0.27595127
1.2911741 2.0593252 0.46321201
1.2767298 1.2807981 0.17120014
0.3551763 0.79575467 0.00079624192
1.4544369 2.170737 0.13741696
1.3265822 2.3803902 0.49205631
0.72726834 0.86078465 0.10366469
1.6663913 2.0520818 0.15989152
1.278427 1.6795998 0.054337408
0.077784687 0.32016912 0.37046656
0.85575432 1.3680391 0.27001068
0.053886354 0.26879069 0.041593097
-0.52844644 0.53896719 0.043031435
0.71317917 0.75002295 0.19879942
0.11236173 1.3575968 0.45204973
0.78465056 1.8513294 0.32462716
1.1933796 1.375196 0.37183231
1.7205529 1.7276467 0.0081945322
-0.21540962 0.77769309 0.15003054
-0.051201157 1.0745529 0.23572639
1.8570298 2.3098347 0.41684642
0.8274883 1.3878523 0.49282658
1.0021994 1.5660703 0.37021428
0.94089931 1.9925042 0.38324052
0.12512717 0.25250468 0.32349759
1.6036817 2.6097193 0.20062554
1.1386486 1.5866644 0.26490733
0.72728598 0.91048813 0.26741537
0.66833854 1.0389684 0.11853022
1.1343056 1.8460528 0.016544374
0.025716916 0.71220547 0.1766351
0.010809488 0.021531327 0.37475368
1.6736506 2.5404623 0.074112132
1.3412226 1.7716221 0.44591063
0.78291553 1.3391922 0.49094537
0.038952537 0.5854826 0.34663334
1.1430225 1.1837767 0.0050308718
-0.1273535 0.4593254 0.069802612
0.72264266 1.8784239 0.2008401
1.4359043 2.1709247 0.45248073
1.383109 2.3641036 0.19519109
0.0057977512 0.99757266 0.19898184
1.6004976 2.5827632 0.0054460634
-0.018092301 0.58757472 0.15761521
-0.60125875 0.71177751 0.3542887
-0.036640026 0.070327707 0.047516271
1.0462009 1.9287684 0.061925068
1.0122163 2.0054412 0.2693474
1.5819595 2.027993 0.17797777
0.41870013 0.65279633 0.43784678
0.29966432 0.36861783 0.28468075
0.96056157 1.3639719 0.13532612
1.8146666 2.1982837 0.48260948
1.7428586 2.316303 0.19674508
0.27182323 0.88210726 0.1609735
1.7693284 2.3908415 0.19879231
0.060881 0.25983712 0.010827043
-0.17933612 1.0255059 0.36198506
1.0688561 2.0628021 0.019681688
-0.47595119 0.87516016 0.1024472
1.9774017 2.1370602 0.12682594
0.67645723 1.6109602 0.26945302
1.288879 2.1468186 0.40508211
1.2456771 2.0424571 0.10782535
-0.2332463 0.9481771 0.32359335
0.46345156 1.6173847 0.043331474
1.2534028 2.5142422 0.11367309
1.8654166 1.9940988 0.039649058
0.75792575 1.930494 0.39106199
0.77489322 2.0805311 0.368752
1.230903 2.4938147 0.42519984
-0.026469924 0.5847007 0.25559655
1.251213 1.5934025 0.05892399
1.0075949 1.0316156 0.34062824
1.345904 1.608235 0.2583245
0.2506679 1.206611 0.16630147
0.51367372 1.3112849 0.11207544
1.0598021 1.7297047 0.15757148
1.4870555 1.6388847 0.072136961
0.54896665 1.6526039 0.033749674
0.0784491 1.0094453 0.48025638
-0.33193964 0.78513348 0.19633782
0.98546886 1.6365336 0.31732011
0.89559376 2.2263954 0.32581273
0.43418691 1.335488 0.41856074
1.2872851 2.6743457 0.25653768
0.27446914 0.85563576 0.0385358
0.99215394 1.0889426 0.27538219
1.1396831 2.2784517 0.3290619
1.7859126 2.2443247 0.21925656
-0.37353572 0.44750774 0.048413433
1.5884873 2.5605953 0.44335842
0.5702641 1.0021594 0.17354457
-0.01800576 0.04033903 0.14405397
1.0693548 1.7175912 0.46271199
0.77067226 1.3252387 0.45311198
-0.45060179 0.48066628 0.1585854
0.07314913 0.2839025 0.19280535
0.67180771 2.0219393 0.095420882
-0.01802074 1.2613097 0.257494
0.89987743 2.2038653 0.047776688
1.1208712 2.3936729 0.39146879
1.3255975 1.7083269 0.044166852
-0.063157745 0.32701606 0.064794853
0.083520509 1.4026763 0.29398102
0.28310919 0.88668841 0.49004987
0.079169437 0.69277012 0.31930286
0.69248176 1.4250996 0.39381543
1.7686346 1.9849545 0.37115905
-0.15506414 0.47568554 0.32347068
1.1272067 1.3783237 0.2845
1.4512554 1.4596736 0.23450339
0.48514241 1.5048689 0.36981866
0.62855011 1.7362293 0.0077659339
1.3628587 1.5517232 0.47415793
0.29382792 0.87262499 0.18755542
0.12295651 0.95906681 0.40449601
1.8318204 1.9595776 0.16351557
0.75571913 2.1346726 0.23999624
0.86276311 0.9343769 0.46299994
-0.30377579 0.60301477 0.051783204
1.1252074 1.5880941 0.054759491
-0.33286786 0.79335588 0.41528723
1.5491167 2.0493867 0.30691093
1.8034079 1.8609916 0.37368464
1.4993604 1.9457618 0.07832031
-0.0065668575 0.80050892 0.37392995
1.7847716 2.441433 0.41909891
0.58256382 0.78847569 0.4066326
1.3012583 2.1062169 0.43195188
1.0944071 1.999112 0.25255078
1.5689945 1.9639196 0.41620591
1.7245713 2.2729926 0.31438613
1.4725217 1.8062304 0.49125829
0.74968767 0.89064938 0.011617201
-0.36041006 0.92892575 0.16944392
0.54665798 0.68642759 0.4547883
0.014527341 0.14881825 0.1869532
1.5641068 2.155411 0.25975406
1.3071768 1.6200924 0.04434989
0.50288665 1.8469752 0.36421138
-0.42866379 0.67884928 0.0038385142
1.3779945 2.4038153 0.19773468
0.75114971 1.4556743 0.31571853
0.44067225 1.6919758 0.36555603
1.102314 1.1289092 0.32140508
1.6156894 2.0533133 0.37082109
1.3966482 1.8887204 0.41830009
0.15569025 0.47338825 0.12735768
0.7698552 2.0633097 0.23799002
1.273479 1.9360071 0.2131971
0.65567905 1.4016024 0.10476211
0.74876964 1.3410827 0.46744451
1.2198828 2.5478039 0.21653156
0.78970832 1.4142984 0.15893418
-0.15255968 1.2157716 0.16833702
1.3066529 2.4837713 0.32306036
0.91813862 1.7761664 0.49703419
0.4666689 1.5343895 0.1093574
1.2419144 1.8398098 0.066662595
0.30249262 0.55600309 0.30090165
0.86413109 1.8034021 0.064625368
1.6673971 1.8890719 0.27403963
1.6084349 1.6717918 0.2435306
0.038445737 0.8364715 0.46435654
0.5355444 1.6879741 0.44813469
1.3251072 2.3267982 0.36430892
0.83247197 1.318051 0.16766757
0.48637938 1.6389779 0.045163821
1.1438297 1.9094559 0.25655174
1.2835724 2.3353641 0.34618124
0.70138764 1.2281433 0.17826366
1.0899318 1.3879637 0.25663754
-0.41544127 0.97599941 0.27903756
1.1790588 1.447925 0.061182268
0.65725005 1.667289 0.46862769
0.53566003 1.3487873 0.32277891
0.30865785 0.42441249 0.49445701
0.6657849 1.4899919 0.4019621
1.0556246 1.48338 0.17265187
0.12671185 0.34656581 0.04451634
1.2738459 2.1368768 0.2307526
0.20295848 0.47774103 0.33612275
1.1983531 1.6599883 0.32807133
-0.17694183 1.1603547 0.42312989
0.40231615 1.1002455 0.28023261
-0.044859841 1.2812185 0.067716509
1.9095035 2.0657251 0.10864196
1.5266904 2.4015043 0.40004316
1.3946902 1.7016253 0.051277533
-0.073009923 0.3916845 0.12900765
0.25450987 0.44189835 0.43413517
1.1200603 1.5343486 0.031285472
-0.051602174 1.3154665 0.19449818
1.8834913 2.1641507 0.1673039
1.306932 2.0884454 0.41405916
0.16847816 1.3621111 0.38289869
0.50034368 1.6048392 0.43813139
1.0136801 2.0133603 0.2474248
0.78065342 1.3982252 0.35594279
0.9450931 1.6688898 0.020237071
1.3763582 2.3322909 0.086488903
1.3616227 1.7881448 0.23296194
1.2837117 2.1315219 0.21629374
0.020076981 0.80288768 0.31552184
0.87109786 1.3714875 0.091828533
0.2513836 1.2619696 0.013841502
0.1108078 0.40890786 0.40433964
1.4651351 2.7722487 0.25777996
0.73750961 1.3567024 0.47612455
0.39776957 0.47407651 0.23202533
-0.13447998 1.1780434 0.069998577
0.41460687 1.3628391 0.22079693
1.5408819 2.2133117 0.020543121
0.20005736 1.1468087 0.2973085
1.8720458 2.152112 0.47422293
-0.11190467 0.67261267 0.33151904
-0.13979943 0.81795645 0.43691334
1.5765445 2.5325482 0.39904776
0.90696341 1.1468241 0.11796552
0.66036081 1.1908369 0.14494409
1.4708337 2.3491642 0.10899115
0.057357881 0.11395682 0.44424188
0.36842096 1.6764177 0.18198173
0.93820715 1.2809458 0.016708896
0.11467373 0.3845847 0.11572728
-0.088140421 0.36867324 0.39309606
1.2053496 1.8882157 0.23171389
0.95995361 1.5983036 0.069712199
0.18935168 1.5122975 0.15451577
1.0884109 1.6142089 0.34206739
1.773797 2.1587143 0.1526041
0.086334519 0.52835661 0.17261484
-0.49103361 0.63260138 0.13506156
0.61829746 1.0674365 0.25623795
0.60597754 1.221536 0.35166588
1.0502113 1.7592808 0.013173908
0.78816885 1.1142131 0.25460351
1.3448714 2.5236681 0.48029429
-0.057186522 0.27461302 0.44802627
0.14793172 1.3806045 0.13392399
-0.47043139 0.65886492 0.27001277
0.074564457 1.4087578 0.42629117
0.78331262 2.1646953 0.32355613
1.7824814 2.3115616 0.48235077
0.44370103 1.5819526 0.19998357
0.053230818 0.71376616 0.45067748
-0.20794068 1.0867219 0.065951556
0.93460065 2.104563 0.48271912
0.81475866 2.0571964 0.10002798
1.0466036 1.3843398 0.035843626
1.5833894 1.9839368 0.43511015
0.36041585 1.255404 0.40681872
0.26346791 0.72691178 0.39521122
1.6609666 2.074878 0.082269363
1.2484783 2.3376076 0.48470205
-0.1522164 1.1925784 0.21823655
0.19916913 0.42267752 0.17596892
-0.027549371 1.2090136 0.089613043
0.1275817 0.90724939 0.028881123
0.85391402 1.0296826 0.14828894
0.41143128 1.7763087 0.28990382
0.5739305 1.063201 0.10632994
0.013532549 0.83292955 0.2701821
1.7747378 2.4252028 0.41652185
0.11188262 0.54349595 0.30158719
-0.12641476 0.65198594 0.27704397
0.6958434 1.6815263 0.35606611
1.2455056 2.6250098 0.29325712
0.039016098 0.34925056 0.068911284
-0.15238446 0.78571558 0.13105488
0.81923562 1.0723687 0.11361191
-0.34498212 0.45386145 0.28659514
-0.034939408 1.0460582 0.076295719
1.1184628 2.1852272 0.30626982
0.65506536 1.9402891 0.45886818
0.43278265 0.47898322 0.23407438
1.2119523 2.0506096 0.082565919
0.66331351 1.3779289 0.070294343
-0.27853337 0.56550425 0.17997879
-0.091722712 0.96342528 0.011647223
0.85613543 1.1276047 0.10114329
1.3200034 1.6277658 0.38357714
0.24608342 0.89088535 0.26576751
0.72627056 1.0580889 0.14292561
-0.52821612 0.66872036 0.097320825
1.9737425 2.0603874 0.11365519
0.30175537 1.4759208 0.41016528
1.0189526 1.4593186 0.16281997
1.2693578 1.8053808 0.46123233
-0.23366104 0.59292948 0.33428347
0.19223738 0.26586103 0.43026236
0.13005714 1.1862705 0.039072756
0.15372875 0.17471816 0.26704466
0.98389155 1.5996674 0.38436016
1.5668561 2.2294667 0.3075411
-0.10681511 0.48629192 0.33817467
0.079103671 1.2647694 0.25330487
-0.0079712383 0.58957142 0.40899777
0.87746572 1.0857077 0.098510519
0.65311038 0.98110843 0.3907544
-0.126315 0.35438254 0.41678429
1.4797456 2.399219 0.29021212
1.5907761 2.6197319 0.29763299
0.87894392 1.3548723 0.015342645
0.46271184 0.78986776 0.24961089
1.7042521 2.1579003 0.45930588
0.79370654 1.6953124 0.37850204
-0.34986567 0.7456069 0.089765266
1.7652761 2.1009262 0.16338989
-0.21046932 0.66992044 0.27935472
1.4093499 2.3657622 0.44930696
1.1169083 1.9520952 0.27438992
0.23220913 1.0566851 0.13818069
1.8297631 1.9846309 0.30644682
1.6860931 2.2584875 0.4221139
0.68719679 1.1327617 0.082502738
0.099709816 1.3749477 0.40126854
-0.48171926 0.92543238 0.2885766
-0.038137771 1.2435344 0.40724686
1.2855984 1.3062074 0.21851164
-0.27970555 0.99927419 0.056654442
-0.29917166 0.58859563 0.35193759
0.65015042 1.9675491 0.14343388
1.3077759 2.4824257 0.19818793
0.53627598 1.6115725 0.4005599
0.6096136 0.87734932 0.058090888
0.71386683 1.473155 0.0089555681
0.22103257 1.1282252 0.0064588012
1.24446 2.5534515 0.45959836
1.1260808 1.884794 0.46688473
-0.18810129 0.81046814 0.41907236
0.0040258123 1.09907 0.2329455
1.7679942 2.3213911 0.19871628
0.33061871 0.73320276 0.11401771
0.81348413 1.9320177 0.49419242
0.8508752 1.0508494 0.088851295
0.73283029 1.6618118 0.35730022
0.54594928 1.9246835 0.17804125
0.64747322 1.8779643 0.14083964
0.6813578 1.5012603 0.40908527
0.43713385 1.464492 0.26213288
-0.090062343 1.3049943 0.14928944
0.92378426 2.2677557 0.34494486
0.17534891 0.45971406 0.4872798
0.20150144 1.4010339 0.38274112
0.56701463 0.9862417 0.45344272
0.54487169 1.7623129 0.28188729
0.2347825 0.86155432 0.26934344
1.2763481 1.3307188 0.20438774
1.5101104 2.2920206 0.49426702
1.5145611 1.5161328 0.35749295
0.30288768 0.70943677 0.35071996
1.1114526 1.1676348 0.32588565
0.34776554 0.61563545 0.42642391
0.026709139 0.82875746 0.35052267
1.3916662 2.7114666 0.49874184
1.5167164 2.1913648 0.42917228
0.40861982 1.4487138 0.15076956
1.8239429 2.3188457 0.16999252
0.6431846 0.99125069 0.44643947
0.113746 1.4720434 0.4469952
0.047525857 0.3290512 0.090732016
1.1556567 2.196878 0.11059543
0.25638536 1.6187402 0.20530175
0.50875747 0.74205428 0.48886865
2.0191505 2.2059448 0.45548859
2.1029058 2.1115136 0.19401281
1.4928536 2.1205726 0.061741576
0.027836366 0.62227124 0.23671612
0.47664765 1.6158943 0.35977608
0.69221818 0.94584769 0.34000674
0.40457499 0.78373021 0.43954095
0.93786931 1.0203226 0.30766824
1.0945652 1.8020601 0.28933337
-0.36420229 0.76022995 0.37181625
-0.40850434 0.71007943 0.43785796
1.5286736 2.6378503 0.44090125
0.33534902 1.2347875 0.16283338
0.48894507 1.6050861 0.37299785
1.8515962 2.2510376 0.27578235
0.98366559 1.929129 0.36545393
0.10682074 1.4483858 0.49950552
0.23105623 0.81113839 0.028657136
1.7607179 1.8921282 0.27879441
0.8009305 1.06435 0.17634124
0.20683038 0.57077497 0.071820326
-0.04412983 0.2944425 0.46397349
1.5647663 2.4267175 0.28197303
0.49239108 0.63813907 0.17658846
-0.023099 0.075980097 0.31781232
0.66148067 1.7314912 0.15208411
0.53855568 0.71275491 0.126399
0.36275873 0.8843562 0.331489
0.58263975 0.90763903 0.3779496
1.4545841 2.4013436 0.47108245
-0.048184589 1.1577766 0.099756308
0.21480449 1.5042032 0.21945971
0.10381649 1.3094963 0.024205469
1.8188118 1.9871213 0.075735167
0.43787932 0.62381595 0.11076492
1.3874142 2.3710082 0.4890708
-0.29721969 1.1034777 0.05065953
0.73830014 1.140489 0.23507208
-0.22501126 0.6739372 0.34997666
1.4429451 2.2129893 0.18470666
1.1353265 2.2752347 0.11107833
-0.14215823 0.15653895 0.066949628
0.55337834 1.3231797 0.49322179
0.72885805 1.3530903 0.052728232
0.87322593 1.8513566 0.11846676
1.4238647 2.2405894 0.46621972
1.2431197 2.3285968 0.46144107
1.8520252 2.1495519 0.10363632
0.65321016 1.1003789 0.4214626
0.11449938 0.36609936 0.19371432
0.3297165 1.7181702 0.096732706
0.79858518 2.1918323 0.2023381
1.4769754 2.0815284 0.47450399
1.1012267 2.3997624 0.19520344
1.5779433 2.3704598 0.041024856
0.055599269 0.65538681 0.32978058
0.024102394 0.40024856 0.21355474
-0.099312007 0.1964796 0.31874633
0.048114799 0.9284361 0.47684434
-0.36519098 0.67532992 0.06579835
0.82246161 1.1313978 0.056690849
0.73446083 2.0402029 0.049278133
-0.41438887 0.66330761 0.26301992
-0.39895061 0.43152866 0.22212164
0.47826707 1.2106671 0.0023185038
0.53382313 1.5032185 0.21437541
-0.25908184 0.85176384 0.34736317
0.6307596 1.7739944 0.45194128
0.40611365 0.46065196 0.26318187
0.25618264 0.41410059 0.13106155
0.20969819 1.0189025 0.24028699
0.69487995 1.0147587 0.20193653
0.86246288 1.2653146 0.082959764
-0.14838819 0.26532283 0.37657854
0.51250511 1.4891942 0.13552104
0.88994151 1.1314309 0.47825405
1.7006791 2.139729 0.37099731
0.65230346 1.8929381 0.2751919
1.0110534 1.1263965 0.2944741
-0.1053946 0.23337618 0.35030651
0.2458857 0.99419004 0.13640347
0.98039734 2.2985811 0.2494977
0.06829831 0.68152779 0.39192727
0.40077767 1.0529853 0.038196191
-0.45647183 0.86296892 0.38350791
0.48870662 1.0677246 0.4688873
0.46348515 0.90842563 0.12411493
-0.50803381 0.78532058 0.062745549
1.0103717 1.6019958 0.10352546
0.11706878 0.75135344 0.22329901
1.3966142 2.4442575 0.48786455
0.014615113 0.74103767 0.45391294
0.94817317 1.9245378 0.17072231
0.9544723 1.0012109 0.40131256
1.0487754 1.2310132 0.3678053
0.29513621 0.99618435 0.072519086
-0.065515563 1.0928361 0.22982931
0.41484505 1.6656257 0.18709913
0.95276403 1.6601202 0.39626986
1.2472484 2.2440786 0.12052335
0.14026704 1.0031743 0.49092117
-0.037161384 1.0776302 0.24775033
-0.0043705432 0.65377772 0.092947334
0.39399567 1.7040384 0.10947196
0.30244225 0.95820093 0.17390272
-0.47363243 0.61256647 0.42176068
0.36992666 0.38435221 0.33129987
0.99826473 1.7061805 0.27351761
-0.057635188 0.10702848 0.023605812
1.0417075 2.370147 0.37603855
-0.051742278 0.24363065 0.18112235
-0.26367193 0.37852392 0.075260684
0.67920917 1.5378741 0.30795124
1.4309858 1.5747818 0.27112126
1.6853287 2.2493391 0.0029669779
0.27865952 0.88898128 0.38699627
-0.17899495 0.68275309 0.39209646
1.4829572 1.8319734 0.14238249
0.51384163 0.87932229 0.20059989
0.75245696 0.8410089 0.17027412
0.19455171 0.3470664 0.27470422
0.94384676 1.1346455 0.0017547472
0.89363694 1.8234634 0.30533865
0.28498855 0.80252397 0.35617819
1.4865875 1.9014653 0.055586003
1.3045685 2.10866 0.27136731
0.74117464 1.7131854 0.076041266
0.43799704 1.1007712 0.19943714
0.80988079 1.937043 0.32865405
-0.018837145 0.22526671 0.3599619
0.61330515 1.0379484 0.41388398
1.4323611 2.549835 0.48134151
1.6940626 2.3030231 0.31008482
0.68693227 1.658397 0.49306121
0.21917939 0.90578145 0.13974267
0.59324616 1.0033776 0.42403191
1.3355002 2.5637517 0.26768965
-0.012558912 0.31440163 0.0020156843
0.37576056 1.6183623 0.40052769
-0.38560364 0.92580801 0.48683143
1.5734832 2.0210991 0.13696547
1.2515312 1.6123323 0.032052178
1.2132958 1.4922452 0.24735223
0.016665727 1.0773915 0.09081687
0.50684023 0.52833939 0.33356735
0.83361417 1.3873212 0.4785707
0.56854039 1.0077845 0.41282311
1.6539443 2.1938026 0.028421126
1.3301423 2.5347083 0.46774721
0.81808281 2.2027171 0.43140122
0.87022299 2.0388377 0.089657344
1.6811144 2.3901367 0.21721978
-0.048036754 0.14861903 0.31584328
0.81904703 1.3803886 0.19086647
1.0318204 1.9382218 0.19846758
0.66265744 0.8951571 0.3942326
0.30901974 1.0669611 0.049528848
0.0049752248 0.63128525 0.2403976
0.18852089 0.68890083 0.16627601
0.25532401 0.34842366 0.15581809
-0.52055937 0.54222715 0.068985775
-0.11161058 0.89404613 0.31966302
0.79321116 1.8323953 0.38919133
0.35243455 0.71055037 0.087655544
0.66720539 2.0153353 0.40811685
-0.16461733 0.28857052 0.49031788
1.2786398 2.1904879 0.25829059
1.3827295 2.5066645 0.47972465
0.84219962 0.84439492 0.15663567
1.4470243 1.6504689 0.18955138
-0.016827069 0.19384004 0.065303169
0.14544886 0.61692786 0.42085651
1.0640631 2.4107442 0.28826359
1.1238844 1.4106803 0.41487664
1.0486853 2.2296615 0.39151254
0.63819915 1.8604929 0.05173865
0.72604024 1.6904963 0.37412566
-0.24057144 0.60613579 0.27149665
-0.60769159 0.80121386 0.27227283
0.24771518 1.2749048 0.34420133
1.0224113 2.1086054 0.41868338
1.1724064 2.5127261 0.085376382
0.96460134 2.0489764 0.061500069
0.35095921 0.86597562 0.16289772
0.15052712 0.34411219 0.080435827
1.3951255 2.421608 0.012581949
-0.20233569 0.2154454 0.3535687
1.3240176 1.8636534 0.15292491
0.32230633 0.9264496 0.15104821
1.2236921 2.3353753 0.01421459
0.74796492 1.4891069 0.39824215
0.49588579 1.0511917 0.37211666
1.062951 1.2085692 0.25550115
1.1210511 1.6723143 0.43758696
1.7297277 2.4458706 0.0060296077
0.020652253 0.59482616 0.36894596
0.07184799 0.65039182 0.016653869
1.7477412 1.9746284 0.20744395
0.067100324 0.71023959 0.42104086
0.82187247 1.237154 0.31408024
0.50933462 1.6703067 0.0761135
0.52687311 0.7893241 0.27244377
-0.39427659 0.62534779 0.32392761
0.93126887 1.4678015 0.018828599
0.6776464 1.1918316 0.27202338
0.60064811 1.3199928 0.47502449
-0.075740397 0.8843509 0.17957063
0.081627831 0.86829543 0.25978738
0.83218133 1.8779622 0.48717144
0.86112183 1.1790314 0.13399564
-0.29094243 0.75351417 0.044461243
0.51972038 0.58869582 0.13725169
1.6370896 1.7830888 0.49774334
0.49023274 1.435922 0.18743627
0.96564281 1.1202779 0.36922818
-0.32168689 0.47316179 0.12355494
1.558903 2.6232884 0.46299848
0.041115738 1.4221424 0.24112748
1.3987164 2.2689106 0.11086686
1.7113708 1.8474026 0.22326484
0.081450492 0.37167284 0.09253601
0.085347541 0.74504197 0.11692251
0.80473417 1.1902745 0.16854101
0.47413418 1.501726 0.0028926644
1.6288122 1.9374975 0.057564411
1.0487486 1.4079255 0.33858585
1.5830227 1.9220499 0.21490298
1.1821622 2.0089421 0.20316963
0.1796947 0.81480336 0.010829763
0.76404083 1.1711937 0.05892425
1.6357528 2.1939468 0.16153334
-0.23136878 0.60362172 0.39477053
0.63929677 0.72507662 0.031079629
1.0250458 1.7694457 0.39438823
1.15004 1.6689963 0.0035249384
0.98481953 2.3226671 0.13051313
0.42292535 1.5149169 0.25037733
1.5099375 2.2514169 0.042688131
0.08484327 1.157822 0.26723295
0.51535773 0.81920117 0.41118324
0.83417571 1.0003721 0.10853462
1.4574615 1.7477422 0.40374833
0.78361511 1.5286869 0.4340761
1.1568331 1.4191884 0.19726121
0.23892084 1.4409549 0.38073996
0.4097349 1.300051 0.35374051
1.3475883 1.4696383 0.23981783
-0.33836344 1.0374714 0.0019703915
0.34274286 0.71858591 0.38132569
1.2540897 2.0747857 0.48875055
1.278621 1.2966194 0.047509834
1.2048938 2.2912934 0.15013956
1.1182557 1.5612091 0.41356221
0.40922737 1.7108545 0.0063188397
1.6732633 2.1206355 0.4313021
0.88232142 1.8996222 0.24607638
0.4993639 1.0415267 0.28922755
1.4003068 2.1755056 0.27565864
1.2317783 2.3607533 0.40853921
0.88058001 1.7049667 0.19869909
1.1107527 1.3793392 0.20506246
1.4367287 1.4564974 0.089162722
1.6271394 2.5400631 0.24577038
1.6141747 1.8195788 0.20596509
1.7157737 1.771597 0.36413506
0.96065581 1.9437938 0.2238052
0.33364078 0.41619539 0.41548872
0.96476066 2.2392528 0.18956287
0.12131235 1.1791013 0.088715829
0.0094594611 0.51488382 0.38018054
0.43745297 1.772908 0.47514021
1.5323617 2.4180119 0.48212951
-0.19810015 0.66240394 0.30489677
0.97942984 1.5703049 0.37751806
-0.14217636 0.19694203 0.39725462
0.91864288 2.2259111 0.24484637
0.3289817 0.47198179 0.27403384
-0.56357157 0.64743298 0.22463483
0.73104674 0.96130896 0.098619729
1.0200455 1.4250889 0.27731422
0.14330113 1.2851315 0.24946886
0.086541176 1.1309491 0.062593475
-0.066660836 1.1325151 0.36682761
1.5090576 2.1439314 0.07573349
0.98028314 1.6334122 0.19562995
0.72738588 1.0144861 0.15781908
1.6326872 2.1867752 0.20837724
0.66001701 1.2420589 0.13653201
1.3310026 2.4771631 0.217942
-0.072325327 0.47466636 0.36114645
0.86614722 1.8892831 0.26484442
0.30742535 0.32217777 0.13409838
0.39534461 0.76538175 0.058071084
-0.071382686 0.10210393 0.2825329
-0.18568859 0.85902983 0.013448909
1.0610938 1.2722226 0.11495416
1.8011931 1.8712626 0.31085387
0.24692991 0.95102459 0.016636735
0.89859867 1.4578683 0.42186564
1.7561914 2.4495747 0.1152564
1.4149541 1.6126006 0.47698957
0.31233948 0.7198537 0.48220533
0.68781632 1.4822394 0.11303321
0.92907089 1.7337344 0.17436999
-0.10578744 0.92332309 0.043733731
0.26949215 0.66216123 0.11837904
0.85223222 1.0548396 0.14315231
-0.14990596 0.45201963 0.39208737
-0.47206676 0.91534781 0.089819059
1.3239033 2.6990263 0.33496708
-0.10591117 0.86418319 0.40484568
-0.37556839 0.93859035 0.048923716
-0.10563398 0.51766306 0.32979468
0.63723123 0.73391646 0.11428615
1.2407645 1.6099616 0.47813168
1.2710356 1.9507837 0.11696116
1.4554299 2.7708688 0.1885937
0.59820795 0.60013777 0.40140653
0.066493265 0.21618347 0.39193165
0.48418173 0.56063497 0.37811106
1.7789481 2.1081586 0.22109121
1.2814054 1.79829 0.18571648
1.4202996 2.0745273 0.40608528
0.46965501 1.5809318 0.44026867
1.1865158 1.8338212 0.070799559
1.2638732 1.5709047 0.31112686
1.7628211 2.0644052 0.27620474
0.24191175 0.94294447 0.27688703
-0.2234977 0.57176059 0.3298105
1.2651913 2.4087219 0.35684079
0.80731612 1.8323354 0.4732343
-0.18216944 0.45520136 0.15598057
0.73039448 1.118494 0.38728493
-0.0098163802 1.061812 0.28018063
-0.05951767 0.60467625 0.0090376064
0.47550321 0.67040956 0.11758963
1.8647383 1.9211733 0.22421573
0.71777946 1.1691664 0.47206825
1.8344678 2.4019425 0.25323451
1.2072029 1.5851017 0.15753362
0.15988794 1.4176706 0.019932635
0.00082539005 1.3496187 0.24527724
1.0615536 1.6124295 0.38249114
0.40801153 1.3095527 0.26136902
1.5058575 2.589118 0.49619702
2.060322 2.11134 0.065106817
-0.19309297 1.1198956 0.085059568
1.1507896 1.6785465 0.24464896
1.0333236 1.5590037 0.44528154
0.22810905 0.27034381 0.078888938
0.63354117 1.2016288 0.023582257
0.49303418 1.5112698 0.00045269309
1.7951003 2.2904501 0.19521673
1.0102917 2.0781629 0.013959659
0.022477059 1.0411265 0.39695013
0.018172132 1.0131621 0.41498771
0.13992986 1.443854 0.37919927
0.73635775 1.5691805 0.065789536
-0.071952723 0.21076554 0.25164554
1.7341413 2.1830106 0.26657778
-0.35834321 0.70224929 0.46742707
0.11476395 0.42924422 0.32742772
0.14286628 0.4049831 0.0025603122
0.45635831 1.74796 0.38010979
1.0454236 1.2773463 0.24025674
0.43633106 1.0120318 0.092038818
-0.18830946 0.9153192 0.05304563
1.7433473 2.2012751 0.3474929
-0.12198719 0.38221163 0.44744891
0.99990249 1.3956051 0.10614815
-0.047741801 0.46259612 0.48112422
-0.27660507 0.41506889 0.092309803
1.0212449 1.8955353 0.18498209
1.3718277 1.5666775 0.14163226
0.47604829 1.4451547 0.2236293
1.9610844 1.9987646 0.42717025
0.10908332 0.38910028 0.31736189
0.38380659 0.56448412 0.47926387
1.8147235 2.0821424 0.15752506
1.1925168 2.2584383 0.29742703
-0.54759747 0.65660882 0.47785875
1.4705625 2.7209234 0.22240242
-0.038143795 0.77026361 0.031510767
0.96402466 1.3377203 0.10040052
1.2447189 2.2588155 0.44303134
0.11930931 1.039142 0.45635337
-0.27271181 0.81318206 0.05535432
0.91569227 2.317683 0.11923347
0.8853454 2.1720779 0.21378037
-0.43570513 0.58713222 0.090640537
0.80800235 1.8671769 0.016391762
0.72259074 1.7647136 0.45846111
-0.57717603 0.70898682 0.24427629
-0.12000453 0.51919305 0.37639764
0.42914319 0.82197201 0.23493491
-0.0056295567 0.7733497 0.060144864
-0.28088489 0.67825115 0.44406632
0.12217448 0.74488872 0.43974492
0.82557547 1.0532173 0.39467356
1.7073309 1.9854484 0.25630116
-0.47529739 0.69454646 0.1307759
-0.11319699 0.47153479 0.49922198
-0.31140006 0.31726864 0.45394921
0.65844506 1.4201766 0.17993967
-0.07447461 1.1042954 0.31882563
1.5014232 1.5218863 0.094236411
1.6903685 1.843287 0.43334219
1.3085515 1.750491 0.15350494
0.7397787 1.8079826 0.23398846
0.38456002 1.2694768 0.33231783
1.4354123 2.3934121 0.24592011
-0.19079587 0.88664979 0.452654
-0.19507484 0.88432699 0.17492196
-0.02978198 0.32828015 0.44423473
0.56200063 1.2633363 0.36099285
-0.0034352101 0.29145676 0.36822763
0.5145402 0.57310379 0.4222925
-0.27810532 0.80013913 0.078541726
0.6556409 1.1689255 0.45620883
1.3726971 2.4373274 0.26907411
0.73025131 1.6569427 0.10777815
-0.46369401 0.69494873 0.48871273
1.341879 2.7302725 0.37033889
0.62004679 0.69372606 0.49693298
0.079231955 0.76135689 0.24489261
1.5627912 2.3409233 0.34915265
0.82245451 1.9631346 0.36985803
0.40576383 1.7204552 0.251075
1.1420006 1.6506672 0.43254852
1.0283129 1.3927742 0.30895215
-0.34928828 0.81090426 0.13658705
0.06943325 1.3067107 0.04622912
0.049960252 1.230408 0.037100334
-0.012000567 0.19215785 0.063149892
-0.16511095 0.31924376 0.30431747
0.93036807 1.3017474 0.079428725
-0.17388785 1.1260213 0.48272005
1.7480237 2.342459 0.44753367
0.93358666 1.0446975 0.12737447
0.24389984 1.1620398 0.25623095
1.4777368 2.5497487 0.16642097
0.41365576 0.53016877 0.1038646
0.39639461 0.93969697 0.021215893
0.52377176 1.1271266 0.09339679
0.76600528 1.4207377 0.26464203
-0.43622458 0.96254635 0.39594448
0.44918084 0.75111598 0.35553172
0.40122789 0.65244371 0.065696299
-0.15108201 0.7595619 0.10497992
0.15499882 1.5342892 0.42959142
1.2779539 2.585526 0.30860484
0.41250062 0.62046731 0.34979841
0.63047886 1.2838094 0.041884813
0.44534057 1.6489706 0.25520295
1.1842393 1.70257 0.48668581
0.097979672 0.79175103 0.48122603
-0.54354 0.55033028 0.08797621
1.4963481 1.5272288 0.17679442
1.6736606 1.9073679 0.49875566
-0.28381556 0.51298767 0.48640847
1.6019799 2.2723961 0.44870502
0.61779767 1.6325366 0.022232339
0.36860505 0.60722655 0.25321957
0.19725539 1.1339806 0.17876704
1.5059618 1.9907432 0.36202464
1.3011861 2.0825443 0.10730985
1.2204031 2.0040247 0.4940514
1.7968318 2.174099 0.0049693417
0.53585535 0.69258511 0.087597325
0.49238071 0.72550118 0.36930981
0.4960942 0.6064598 0.10633778
-0.096587725 0.76388931 0.46510217
-0.16490249 1.0208517 0.049467612
1.3946513 1.6099372 0.38064998
-0.55100894 0.82984531 0.052046079
1.1280832 2.2226341 0.32829794
-0.36825782 0.38688868 0.10535005
1.7731098 2.4376862 0.23873411
-0.5318675 0.54218912 0.29414645
0.34390292 0.40970665 0.37656698
1.7269928 2.1603146 0.41558713
-0.05439147 0.60136408 0.21981168
-0.3451086 0.59596336 0.1390391
0.071106739 0.59949464 0.21515419
1.6395952 2.2609284 0.2033599
-0.11225852 0.21176706 0.090342045
1.2774866 1.6077224 0.35732666
1.7297564 2.0493774 0.092289932
0.61957884 0.94264036 0.47202629
1.741935 2.3161998 0.49529144
1.2774752 1.7332956 0.14849378
0.82817966 1.4663241 0.38033837
1.7189525 2.4407153 0.21305756
0.075758219 1.0210547 0.3998709
1.0455997 1.8768572 0.11954542
-0.22952248 0.6349045 0.23410577
0.38000497 0.7919547 0.35086176
1.9732647 2.2307122 0.46386486
-0.016872481 0.76131469 0.07808435
-0.10480382 0.61188138 0.28111759
0.080531046 0.38659292 0.44227439
0.32811952 1.399016 0.16789252
-0.16573289 0.8775059 0.42307416
0.55539167 1.9642347 0.25728694
0.35061049 1.3193923 0.051180843
0.7902351 1.8941442 0.35680193
0.17392154 0.25427034 0.0024481602
1.6689459 1.7364068 0.093469575
1.3915638 1.707172 0.36860028
1.6383348 2.1229689 0.12198676
0.63184124 1.2721834 0.23019598
0.099076271 1.3151302 0.10881505
1.3998618 1.4389598 0.47765565
0.65355539 1.5325289 0.47575691
0.052584097 0.074011639 0.31827301
-0.17767054 0.73855013 0.20856383
1.2647465 2.3236978 0.23697142
1.4146812 2.1945364 0.26082245
-0.11943051 0.27912316 0.37240681
1.5246309 1.7627388 0.043750841
-0.39648086 0.47630197 0.27014595
0.34445691 1.6886419 0.20008595
1.0400898 1.9163352 0.21390919
1.2880503 1.4787768 0.024673255
1.1640964 1.3970214 0.032249033
0.2996141 0.71949905 0.35618195
1.2935082 1.4953277 0.23057777
-0.42396381 0.98092824 0.0062982403
1.3631034 1.4070128 0.14720824
0.27387637 1.4135756 0.2313921
0.44619194 1.6124983 0.039967429
-0.16073918 0.26905319 0.015208583
0.90252286 0.90357673 0.32500806
1.3489249 2.2722545 0.39244008
1.7338585 2.0966804 0.47479153
1.7008274 2.4033537 0.12324327
1.3329598 1.5508845 0.19459724
0.097070657 0.50065017 0.19130158
-0.3378942 0.98905736 0.2068259
0.71252221 1.1877443 0.10977045
1.3511207 2.5125728 0.022122016
1.5026358 2.7001927 0.17407657
-0.14806974 0.23730667 0.17444916
1.3343997 1.5126222 0.00089545501
0.94674522 0.98760051 0.12917237
0.15576458 1.5646802 0.37755293
0.90510756 1.861091 0.45460096
-0.49022675 0.66499704 0.097287849
0.21286996 1.5851481 0.066436075
1.4807537 2.0722404 0.23445243
-0.1116923 0.35347879 0.14508775
-0.011201179 0.44069919 0.068488009
0.71247035 1.1941164 0.20473915
1.6851985 1.7016383 0.26775035
1.3666067 2.0278285 0.28219488
-0.49342248 0.74128079 0.28032178
